2.435415465	1.725782452	-0.847959708
2.763765275	1.650697066	-0.847963207
2.449350751	1.724393918	-0.850965689
2.750518587	1.631357488	-0.842359358
3.055010393	1.960060838	-0.845933113
2.762176607	1.62683728	-0.844397122
2.448036022	1.701098744	-0.846866617
2.619161767	1.654947673	-0.847398031
2.788760641	1.608108885	-0.847963208
2.795359371	1.600506405	-0.848472647
2.47304329	1.662810999	-0.846593389
2.803442974	1.582373666	-0.847963206
2.648355406	1.617090502	-0.848717142
2.479191971	1.644946175	-0.845227014
2.496481479	1.63444528	-0.847686477
2.673805656	1.587917055	-0.850563874
2.501615228	1.615964751	-0.846046816
2.923837422	1.877099497	-0.845841673
2.835497442	1.53234235	-0.848982089
2.673679481	1.576766515	-0.848980951
3.986374076	2.150627647	-0.835977702
3.123174083	1.832254636	-0.843890342
2.834220261	1.520435952	-0.847199017
3.132146792	1.824625089	-0.84479824
2.936120825	1.85964381	-0.846078242
2.685805764	1.561786128	-0.849772443
2.374351377	1.631714881	-0.850869385
3.133514664	1.812569033	-0.843663367
2.93687779	1.847522946	-0.844659055
2.673042639	1.54341023	-0.844232132
2.370633454	1.618474476	-0.847753671
2.949948091	1.843137586	-0.846787835
2.845525035	1.492938303	-0.846434885
2.691990839	1.543357961	-0.848717143
2.542427161	1.587591743	-0.851512263
2.370031825	1.607425666	-0.845770982
4.006367409	2.098352962	-0.834707228
2.853522633	1.485987964	-0.847453767
2.684977389	1.528411172	-0.845023622
2.857208926	1.476782458	-0.847199016
2.700570307	1.526336554	-0.848453332
2.54393011	1.56691699	-0.848779567
2.396587193	1.604055359	-0.851719109
2.852261861	1.463154565	-0.844397122
2.699352084	1.514739933	-0.846606543
2.548725347	1.559104941	-0.848779567
2.399899715	1.595633207	-0.851152625
2.972344212	1.806798357	-0.846787836
2.867078293	1.459661864	-0.847453765
2.550208199	1.549280397	-0.847686478
2.403183321	1.587205849	-0.850586143
2.705219269	1.496281056	-0.845551243
2.408041385	1.579825533	-0.850586142
4.045107393	2.040194275	-0.836159197
2.985041321	1.789525552	-0.847260918
2.8630141	1.435540795	-0.84363293
2.707260462	1.486581729	-0.84475981
2.562141929	1.535086645	-0.848506281
2.410466559	1.570859411	-0.849736419
2.974654659	1.770915663	-0.842766786
2.88472019	1.43536611	-0.848727341
2.410443838	1.560329875	-0.848036911
2.990110643	1.767714763	-0.845605161
2.411992952	1.550852744	-0.846903948
3.37838485	1.660266261	-0.840524424
2.997195507	1.759516706	-0.846078241
2.883920838	1.412958642	-0.845925444
2.731024877	1.467079376	-0.847925654
2.414314728	1.541896931	-0.846054223
3.001740246	1.749823866	-0.845841673
2.733810667	1.457786056	-0.847398032
2.422273148	1.536537553	-0.847187188
6.744638375	3.282979612	-0.820985746
3.00625351	1.740119675	-0.845605161
2.737417583	1.448940765	-0.84713422
2.584554686	1.495123144	-0.848232993
2.429410163	1.53063257	-0.848036913
6.749307777	3.259677892	-0.820332956
3.397921534	1.631213985	-0.841613998
2.750388875	1.44502196	-0.849772441
2.439785574	1.526733285	-0.850019661
2.753954086	1.436130981	-0.849508574
2.4403853	1.516709631	-0.848603396
3.414925762	1.613669829	-0.843357374
2.759203744	1.428118602	-0.849772442
2.597368978	1.470798207	-0.847959707
2.438498045	1.505185599	-0.846337462
3.411023512	1.599042722	-0.841178168
2.611092728	1.46800837	-0.85096569
2.457004355	1.506218362	-0.851152625
3.414143461	1.587747263	-0.840742339
2.767914499	1.411161591	-0.849772442
2.462432893	1.499171945	-0.851435865
3.419884642	1.577674159	-0.840960253
3.227914523	1.636410454	-0.843436393
3.041172976	1.686374298	-0.846551323
2.457172375	1.485655789	-0.848036912
3.434470971	1.571641876	-0.843357375
3.230309813	1.625186535	-0.84275547
2.621964754	1.442523304	-0.850145886
2.471585408	1.484034563	-0.851435867
3.436610246	1.559887521	-0.842703629
3.234409118	1.614833342	-0.842528494
2.912690368	1.317850711	-0.842104608
2.616247355	1.428939205	-0.846866618
3.440489798	1.548936135	-0.842485714
3.241966244	1.606199764	-0.843209418
3.051441005	1.655532568	-0.845132079
2.923777829	1.312075796	-0.844142372
2.478169078	1.467375399	-0.850586143
3.241634856	1.593668051	-0.841847572
2.91895472	1.299167475	-0.841595166
2.62242478	1.411491607	-0.846046815
2.475218715	1.455390645	-0.848036913
3.254386492	1.587558274	-0.843890341
2.625894372	1.402986211	-0.845773585
3.439409217	1.510533541	-0.838781047
3.248722479	1.572474789	-0.841166648
2.940159317	1.287049409	-0.845416003
2.791499729	1.348460828	-0.847925652
3.438658708	1.497636162	-0.837473502
3.259676766	1.565451759	-0.842755469
2.941432979	1.276867868	-0.844651813
2.784315878	1.33447071	-0.844495942
2.642965644	1.391328529	-0.848506282
2.500976328	1.439724782	-0.852285591
3.24951794	1.548322171	-0.838896904
3.082503766	1.611682425	-0.846787835
2.897317398	1.655399982	-0.848204678
2.952442286	1.270896389	-0.846689577
2.900696611	1.645546907	-0.847711987
2.951880487	1.259934395	-0.845416003
2.809899132	1.325592311	-0.849772442
3.266011079	1.531662548	-0.840712699
3.086288493	1.589623995	-0.84513208
2.894753657	1.630456805	-0.844509312
2.952169668	1.249364658	-0.84439712
2.80259547	1.311650082	-0.846342731
2.503259316	1.410524971	-0.848603395
3.08163428	1.575283138	-0.842530218
2.957772308	1.241049943	-0.844906562
2.800482221	1.300202407	-0.844495942
2.667549888	1.362729017	-0.850965688
3.083853227	1.564502613	-0.841820624
2.961565897	1.231969832	-0.844906562
2.814095344	1.296043048	-0.847398031
2.658848765	1.348013888	-0.846866619
3.288824884	1.505591907	-0.842982443
2.955497846	1.218822707	-0.842104609
2.804898051	1.281391221	-0.8434407
2.672424067	1.344606131	-0.849872599
2.516135605	1.38742584	-0.848603397
3.925158164	1.785907944	-0.837922865
3.670399736	1.834320026	-0.838319087
2.810573355	1.273576134	-0.843968322
2.669651744	1.33296329	-0.847686478
4.184797262	1.707296839	-0.834162741
3.929724343	1.773453519	-0.837732132
3.428279466	1.8636731	-0.837677388
3.099862949	1.536916546	-0.842293706
2.981741387	1.208291867	-0.847453766
2.809188658	1.262574906	-0.842385401
3.45377099	1.863826146	-0.842504889
3.302542827	1.475258608	-0.842982444
3.107178946	1.528685862	-0.843003299
2.931099134	1.580577682	-0.846480198
2.539771195	1.370128662	-0.852285591
3.493855956	1.3957962	-0.840088594
3.31061495	1.466697597	-0.843890342
3.120585623	1.523408479	-0.845368649
2.833644672	1.252724528	-0.847398032
2.672296925	1.303696547	-0.844680496
4.206730637	1.671250171	-0.835433212
3.499936538	1.385789163	-0.840524423
4.21000839	1.657615753	-0.835070222
3.503263237	1.37468853	-0.84030651
3.315980723	1.444800296	-0.842982443
4.215990149	1.645049242	-0.835251718
3.494729655	1.358982152	-0.837255587
2.989104578	1.158219551	-0.844397121
2.848597364	1.228118847	-0.848453331
2.688524592	1.281115175	-0.846046815
3.124114094	1.477935813	-0.8413476
2.694181753	1.273683048	-0.846593389
3.327345231	1.413458103	-0.842528495
3.139188491	1.473297861	-0.844185974
2.942468084	1.517473375	-0.841553039
2.850750833	1.208358446	-0.846870353
2.692851144	1.26296072	-0.844953726
2.559446655	1.320509263	-0.850586142
3.325383206	1.400597045	-0.840939674
3.146336236	1.464890377	-0.844895568
2.855333961	1.199980488	-0.847134222
5.843910633	2.708222283	-0.828417721
3.321576137	1.387010888	-0.838896902
3.013963586	1.125510939	-0.847453767
2.850098123	1.187504996	-0.844495943
2.702296692	1.247220059	-0.8455003
5.85038935	2.689452112	-0.828162613
4.240727526	1.580185811	-0.835251716
3.965954469	1.645304646	-0.834298785
3.52797325	1.30997199	-0.84030651
3.324016186	1.376068852	-0.838442954
2.961502627	1.492945028	-0.843031176
3.003798301	1.111226228	-0.843632932
2.870666631	1.185752071	-0.849508574
2.702611766	1.237321994	-0.844407209
5.860417961	2.672313787	-0.828417722
3.974614936	1.634622956	-0.835061782
2.963468736	1.482551348	-0.842292137
2.703767545	1.227831477	-0.843587407
3.978701911	1.62205077	-0.834870988
3.545114446	1.291641056	-0.842485714
3.148131405	1.418982876	-0.840637949
2.980156273	1.479486068	-0.8457411
2.873419411	1.166301862	-0.848189463
2.584554854	1.283653621	-0.852285592
3.990940746	1.612779064	-0.836396927
2.984681393	1.470336127	-0.845741101
3.022088432	1.08647733	-0.845925444
2.871614924	1.155320706	-0.846606542
2.574717015	1.268934777	-0.847753672
4.251468912	1.525038228	-0.833618251
3.745524719	1.661144662	-0.837118054
2.992660998	1.462874792	-0.846726543
3.02540751	1.077200567	-0.845925444
2.866186306	1.142932438	-0.843968322
3.762262409	1.654773856	-0.839720275
2.875958616	1.136615403	-0.845815053
4.003788298	1.575260308	-0.836015456
3.167979375	1.381408775	-0.8413476
2.871348878	1.12462081	-0.843440699
3.99762732	1.558690162	-0.833726578
3.368229186	1.310374206	-0.842301519
3.167743345	1.369754814	-0.840164924
2.991130021	1.428170045	-0.842538482
2.872088135	1.114759368	-0.842649212
2.742687538	1.185105385	-0.848779568
4.013378777	1.550663772	-0.836015457
3.760224826	1.612739156	-0.835917021
3.566442814	1.225534001	-0.842049885
3.372233693	1.30003446	-0.842301521
3.005132237	1.423550658	-0.845248408
3.032909091	1.038114165	-0.844397121
2.896201072	1.113906474	-0.848717142
2.741005291	1.174412321	-0.847139906
3.766056603	1.60157882	-0.836117232
3.364379113	1.28516454	-0.839350853
3.186818475	1.354853966	-0.843003299
2.894196765	1.102954891	-0.84713422
2.744595252	1.165997522	-0.847139904
5.930135073	2.508727073	-0.828162614
3.780883275	1.594204401	-0.838319089
3.574820259	1.203939083	-0.842267799
3.371949355	1.276215638	-0.84025875
3.187378731	1.343560923	-0.842057193
3.044722716	1.021330233	-0.845925445
2.741954198	1.154957911	-0.845227014
2.609194695	1.217001059	-0.8503029
5.934144991	2.488987273	-0.827652338
4.287900315	1.434950549	-0.834525733
3.788468069	1.583730953	-0.838919604
3.573867892	1.191422752	-0.841178169
3.374025097	1.26518082	-0.839804801
3.18521036	1.331153327	-0.840401437
3.011069768	1.392577183	-0.84327758
3.055183597	1.014422177	-0.847963207
2.896392759	1.083485883	-0.845815053
2.749922832	1.148393706	-0.846593389
2.612916191	1.20899051	-0.850302901
5.939921451	2.470008095	-0.827397171
3.778827441	1.566098809	-0.835716868
3.007399873	1.379695691	-0.841060348
2.906938814	1.077276221	-0.847925652
5.330462437	1.751671333	-0.823442828
4.037613428	1.48925905	-0.836206192
3.384466587	1.245463438	-0.840485725
3.010736201	1.370061195	-0.840814
3.060430839	0.995357739	-0.847708457
2.906608297	1.067023214	-0.846870353
2.759587252	1.132594549	-0.847413192
3.391016543	1.236074672	-0.841166647
2.908961744	1.057771202	-0.846606542
2.748792533	1.118322872	-0.843040833
4.040213986	1.462118402	-0.834870989
3.397541088	1.226657644	-0.841847572
3.060952096	0.974799869	-0.846180134
2.624929847	1.175658882	-0.84945312
3.590792225	1.136167831	-0.840960252
3.064850796	0.965694996	-0.846434885
2.767214698	1.106076967	-0.846593388
3.591466823	1.124271436	-0.840306508
3.40316756	1.205137413	-0.841393622
3.029983388	1.334183404	-0.841553041
2.628583385	1.157983955	-0.848320153
3.596763764	1.113825042	-0.840742338
3.042056131	1.328371888	-0.843770273
2.631244924	1.149530158	-0.848036913
3.596431291	1.101641812	-0.839870621
3.229594881	1.257518995	-0.843712892
2.770105861	1.077771018	-0.844407211
2.64179936	1.144502142	-0.850302901
7.128195317	2.177926434	-0.815763484
6.526716401	2.25814472	-0.821450478
4.998132403	1.726055241	-0.826625674
2.76891172	1.067537118	-0.843040835
2.63912996	1.133742007	-0.848320154
3.612472234	1.082354885	-0.842049885
3.409402575	1.16046032	-0.839350852
4.327277808	1.287491693	-0.833255259
3.839748082	1.455001871	-0.838919606
3.615775785	1.071266842	-0.842049884
3.413869827	1.150305836	-0.839577827
3.072831834	0.906381721	-0.843887681
6.016167702	2.266783022	-0.826886954
4.330263642	1.273932146	-0.833073761
3.83960756	1.44149306	-0.837918782
3.419230547	1.140443132	-0.840031776
3.236596532	1.214719523	-0.841584113
2.939801885	0.977970374	-0.847398033
6.020306588	2.247274545	-0.826504234
4.338873193	1.262014386	-0.833981244
3.616335331	1.501835031	-0.840615896
3.23939717	1.204445548	-0.8413476
2.937291105	0.967136634	-0.845815052
6.57473584	2.162418308	-0.823222107
5.026836747	1.650109238	-0.82708904
4.346505131	1.249783971	-0.834707229
3.845622027	1.41689029	-0.837318265
3.609172728	1.485894364	-0.837887258
3.236694958	1.192150746	-0.839691844
3.077323767	0.877001584	-0.842868799
2.928322141	0.954235522	-0.842385401
7.180458473	2.050171584	-0.817286622
6.583227821	2.142851693	-0.823458321
3.624577244	1.479247895	-0.840405971
3.253115921	1.186877364	-0.843003299
19.4474766	5.513485239	-0.727080514
9.275076629	2.993511266	-0.800426177
7.184801039	2.027592584	-0.817069064
4.339890479	1.21910156	-0.831984786
3.863457474	1.39659813	-0.839319968
3.629098278	1.468120869	-0.84040597
3.260397203	1.178212235	-0.843949463
7.186200011	2.004205247	-0.816525053
6.581114169	2.09759263	-0.821568614
4.099042339	1.301048362	-0.835633986
3.634492963	1.457343888	-0.840615897
3.265826072	1.168858777	-0.844422486
2.670609614	1.07041711	-0.849736419
4.34444393	1.191669105	-0.831440297
4.104887779	1.289054797	-0.836015456
3.632586647	1.443658946	-0.839146643
3.269396804	1.158833805	-0.844422487
3.099052242	0.842215263	-0.845925444
2.808209938	0.994539271	-0.846320103
2.67833746	1.06398918	-0.851152626
19.47040847	5.326877549	-0.72607403
7.201240034	1.960857305	-0.816851448
4.106948453	1.275872656	-0.835633987
3.868752241	1.35838399	-0.83771857
3.63699875	1.432507479	-0.839146643
3.630612019	0.979412432	-0.839652707
3.273853365	1.149119824	-0.844659056
3.094299665	1.217631417	-0.845248409
3.104423398	0.833455809	-0.846689577
2.96104647	0.914900092	-0.847661842
2.675342496	1.05330777	-0.849169879
19.42491578	5.250429428	-0.723773469
4.104274982	1.261248252	-0.834298783
3.634090066	1.418498471	-0.83746752
3.267267908	1.135561565	-0.842057193
3.096214801	1.207428251	-0.844755716
3.097618644	0.821448913	-0.844142372
2.681241805	1.046140787	-0.850019661
9.282734634	2.839517169	-0.797233932
4.110943121	1.24950698	-0.83487099
3.868676883	1.331750014	-0.835917021
3.646631716	1.410517065	-0.839356511
3.275330041	1.127113298	-0.843239811
3.096288475	1.19652618	-0.843770273
3.097317838	0.811206665	-0.843378239
2.958294566	0.894202384	-0.845287431
19.42391175	5.122477166	-0.722551277
9.288540629	2.810158887	-0.796988419
7.515468356	2.883667184	-0.816382038
4.11475681	1.236888844	-0.834870988
3.867179901	1.317978497	-0.834715986
3.630971362	0.943746157	-0.837691417
3.466597564	1.039217125	-0.843436393
3.277852859	1.116745978	-0.843003298
3.097229362	1.185981516	-0.843031175
3.106345525	0.803395322	-0.845161254
19.43760245	5.062357522	-0.722479393
7.521490051	2.859535637	-0.816079365
5.069530079	1.510416573	-0.826934604
4.114768571	1.223140292	-0.834108049
3.87770386	1.308300483	-0.836117232
3.651810795	0.937211687	-0.84183197
3.27389819	1.104200307	-0.84111103
3.091791921	1.173035755	-0.840567655
3.111606567	0.794579206	-0.845925444
2.827692796	0.952882469	-0.847686478
19.42497311	4.995481923	-0.721436968
9.326633523	2.759333047	-0.798789135
7.530227694	2.836446714	-0.816079365
5.068453922	1.493181052	-0.826007872
3.646154435	0.923846273	-0.839870622
3.469170448	1.01683119	-0.842528494
3.283721839	1.096304833	-0.842766787
3.116842706	0.785738335	-0.846689577
2.826040264	0.942680815	-0.846320101
2.696570676	1.01417183	-0.850869385
19.40049478	4.92577999	-0.719963183
7.540758604	2.814026575	-0.816281186
4.744938202	1.572026571	-0.829928267
4.371893325	1.098820542	-0.831984786
3.657253267	1.363270607	-0.837887257
3.111646835	1.158778004	-0.844016619
2.824352063	0.93249831	-0.844953727
19.45428968	4.875955358	-0.721401026
15.97411377	4.627779319	-0.753171173
8.344729368	2.743859537	-0.804222863
3.666921748	1.354075962	-0.839146642
3.659334413	0.903327676	-0.841613997
3.117005732	1.14989705	-0.844509311
3.122544386	0.766829557	-0.846944326
2.844572483	0.929505741	-0.850145888
2.679350024	0.988972484	-0.843504992
15.92965402	4.561972664	-0.750411478
9.321929098	2.664883886	-0.796251707
8.350266973	2.7173209	-0.803949337
5.081981918	1.446469071	-0.826007871
3.905584473	1.264539882	-0.838719453
3.672895083	1.343491335	-0.839566437
3.657347511	0.890941794	-0.840524424
3.112664708	0.754285484	-0.843632932
2.834596814	0.916630724	-0.846320102
2.685974404	0.982065044	-0.844637957
15.88878526	4.497570682	-0.747832742
9.337733886	2.638440267	-0.796906524
8.364251653	2.693521178	-0.804496388
4.385645162	1.059459889	-0.832710771
4.128320844	1.158552918	-0.833154374
3.126736748	1.131739475	-0.845248409
2.698893829	0.9774122	-0.847753671
15.89385062	4.446381289	-0.747425583
9.316986644	2.601738358	-0.79445099
8.381015726	2.670568509	-0.805316907
7.571914341	2.720268921	-0.815978455
4.390788115	1.046455884	-0.833073764
2.832831388	0.896897844	-0.844133925
15.97481837	4.416231288	-0.750592438
9.332611035	2.57526284	-0.795105807
8.383470302	2.643046734	-0.804769855
7.57647517	2.69569184	-0.815574872
4.400678857	1.034555598	-0.834344236
3.669193744	0.858131741	-0.841396082
2.837405516	0.888777718	-0.844680497
16.038402	4.380888423	-0.752944973
9.33662103	2.545569996	-0.794778398
7.565942565	2.665822336	-0.813556838
3.676193453	1.293774058	-0.836627929
3.67180939	0.846870806	-0.841396084
3.316714843	1.028703151	-0.845368648
3.143420625	1.105163977	-0.84697289
2.84195662	0.880637915	-0.845227014
2.700537736	0.949984814	-0.845487682
8.399530022	2.591556891	-0.804769855
7.589115089	2.647841566	-0.815171288
7.275635745	1.672608788	-0.817069064
4.401192068	1.006218996	-0.83325526
3.909535654	1.199883111	-0.835516716
3.680145295	1.282489501	-0.836627929
3.494961997	0.931889114	-0.842982444
3.319855336	1.018522819	-0.845368649
3.121038854	0.705811021	-0.842868798
2.847404045	0.872760474	-0.846046815
2.720647482	0.947689248	-0.850869385
8.396964667	2.562577969	-0.803767007
7.296244881	1.653795563	-0.818809819
4.408095667	0.993576503	-0.833981244
3.686835487	1.272149771	-0.837257594
3.67693647	0.824325063	-0.841396083
3.49592103	0.920666299	-0.842528495
3.319245385	1.007204321	-0.844422486
3.131684263	0.698126177	-0.845161254
2.723542063	0.939337936	-0.850869384
15.96114996	4.202313184	-0.747470822
9.347123746	2.456237374	-0.793714336
8.398113312	2.534790118	-0.803128819
7.59298174	2.597040092	-0.813859569
7.297403767	1.630536142	-0.818374645
4.780862566	1.438722792	-0.828945507
4.412082855	0.980261257	-0.834162739
3.924331285	1.178125786	-0.837118054
3.706449747	1.266205979	-0.840825765
3.682307022	0.813672236	-0.842049884
3.484590915	0.906259576	-0.839123878
3.32138929	0.996737019	-0.844185975
3.130033374	0.687684976	-0.844142372
2.994397755	0.776261601	-0.846078922
15.9459293	4.146035294	-0.746158805
8.408713262	2.509867748	-0.803402286
7.299459047	1.607498993	-0.818048249
6.159114202	1.836407895	-0.826631788
5.679641042	1.921185378	-0.830382173
4.407384378	0.965037834	-0.832710769
3.684786185	0.802371268	-0.842049886
3.314185401	0.983501833	-0.841584113
3.135909024	0.678897382	-0.845161255
2.864538752	0.849250927	-0.848779568
15.94406145	4.093368372	-0.745480207
9.370708491	2.401064712	-0.794450991
8.427834685	2.48744107	-0.804496388
7.29172766	1.582356435	-0.816633832
5.686447452	1.904065986	-0.830519382
3.935246944	1.155128136	-0.837918783
3.712295004	1.242819012	-0.84040597
3.681504833	0.789834334	-0.840742338
3.507078522	0.889169724	-0.843209418
3.149892602	1.053435013	-0.844262965
2.991622956	0.755983162	-0.843968321
2.849591809	0.835317431	-0.843587406
15.93233587	4.038297111	-0.744349208
9.383827561	2.373770851	-0.794942132
8.441161978	2.463246916	-0.80504338
7.299464336	1.560601746	-0.816960227
4.409375504	0.93715869	-0.831984786
4.173965991	1.0479608	-0.836206191
3.707737544	1.228656109	-0.838516978
3.665768173	0.774701786	-0.836601842
2.873391333	0.832729529	-0.849872599
9.41137232	2.350040977	-0.796661011
8.463031727	2.44147859	-0.806410949
7.636567702	2.507702282	-0.815171288
3.944143741	1.131500584	-0.838319087
3.70963157	1.216665756	-0.838097183
3.688192947	0.767627894	-0.841178169
3.495449708	0.863430088	-0.839123878
3.147086949	1.031070361	-0.841799443
2.859287421	0.819141552	-0.844953727
9.386603686	2.313286396	-0.793959907
8.457075564	2.411679527	-0.805134576
7.631924661	2.480264451	-0.813859569
7.324476163	1.519013464	-0.818700981
6.714349592	1.650619832	-0.82239539
3.71055702	1.204373518	-0.83746752
3.680969574	0.754349734	-0.838998962
3.324135324	0.942227672	-0.841111031
9.428520186	2.292956334	-0.796906524
8.451974292	2.382210338	-0.803949337
7.648022509	2.459579552	-0.814767646
3.322332244	0.930714465	-0.839928355
2.863333445	0.801322616	-0.844680498
9.45198541	2.267972433	-0.798298052
7.646051953	2.433087439	-0.813758659
3.685528839	0.731749548	-0.838998962
3.519357567	0.83504446	-0.842982444
2.879685467	0.796380268	-0.848779569
9.474416312	2.242636479	-0.799607627
8.452029716	2.326341074	-0.802581768
7.66391916	2.412904785	-0.814868557
4.418407329	0.868463822	-0.831077305
3.690630036	0.721000399	-0.839652706
3.343912769	0.914669521	-0.843949461
3.155460245	0.612505632	-0.846689576
3.014425067	0.70297973	-0.846606544
2.867268352	0.783484876	-0.84440721
9.463782787	2.209480245	-0.798134319
7.657037473	2.38494272	-0.813355075
4.437464311	0.858078201	-0.834162739
3.73626012	1.162233548	-0.839986175
3.697616808	0.710595253	-0.840742338
3.146876255	0.600827026	-0.843887681
3.024087683	0.695457755	-0.848717141
9.454976919	2.176857669	-0.796824686
8.485379517	2.279604019	-0.804405193
7.686186468	2.36817792	-0.815675782
3.966195933	1.05921565	-0.83871945
3.139200552	0.589385362	-0.841340476
3.024325746	0.685750144	-0.848189463
2.875739644	0.76686832	-0.8455003
9.47133035	2.150046151	-0.797643236
3.964690285	1.045793124	-0.837718571
3.530290017	0.792006834	-0.843209418
3.355947556	0.884845065	-0.844895567
3.160012919	0.583262116	-0.846434883
3.011353887	0.673101825	-0.843968321
9.454539249	2.115754796	-0.795678786
8.478014764	2.221941699	-0.802399437
7.697715051	2.320110556	-0.815373051
3.526997769	0.779910693	-0.841847572
3.150369845	0.57149331	-0.84337824
3.007752969	0.662614828	-0.842385401
2.882252808	0.749692997	-0.846046816
9.458066599	2.086094794	-0.795433216
8.526246734	2.206649796	-0.806319814
7.68286745	2.289947146	-0.813052344
6.745077115	1.483637673	-0.821450479
6.225414255	1.609208383	-0.827014508
4.202230185	0.919012556	-0.835824723
3.339670445	0.858671905	-0.839455332
3.166388393	0.564370688	-0.847199017
3.022025714	0.656044267	-0.845815055
2.895719729	0.743718324	-0.849326085
9.464422013	2.057068093	-0.795433216
8.554203042	2.185905373	-0.80832557
7.688902372	2.26608435	-0.812951492
6.743774187	1.461675045	-0.820741838
4.450104713	0.789910045	-0.83416274
4.203110434	0.905702391	-0.835443252
3.172584692	0.932682121	-0.840567654
3.16905756	0.554820489	-0.847453767
3.018364753	0.645559283	-0.844232133
9.47556148	2.029065462	-0.795842462
8.56086898	2.159651205	-0.80832557
6.755995731	1.442637514	-0.821686692
4.448632032	0.775577973	-0.833436755
4.199147849	0.891376321	-0.83410805
3.173569867	0.922403374	-0.840074904
3.035432758	0.639477518	-0.848453332
2.883431704	0.721732262	-0.844407209
13.58597118	3.391346028	-0.769888157
9.486617445	2.001013772	-0.796251707
4.449051855	0.761594288	-0.833073762
4.207627778	0.879694658	-0.835252517
3.521047939	0.733392831	-0.838215981
3.195946318	0.918283126	-0.845248409
3.032658041	0.629182223	-0.847134222
13.57595285	3.344632827	-0.768735285
9.472219313	1.967643015	-0.794532827
8.556551482	2.1028042	-0.806684474
7.359741708	1.245736199	-0.816960227
4.444578789	0.746800571	-0.831803289
4.207422521	0.866187887	-0.834680255
3.544270267	0.726891551	-0.843209418
3.159719357	0.523259902	-0.843632931
13.53666764	3.290937153	-0.765935475
9.48699927	1.940370698	-0.79526954
8.545542298	2.072318647	-0.80504338
7.373335068	1.224779877	-0.818048249
4.203325723	0.851910709	-0.83334511
3.720641509	0.609028374	-0.841831971
2.898369671	0.697188053	-0.846866619
13.56029386	3.25265224	-0.766704077
9.493885135	1.911452621	-0.795351378
8.545081165	2.044469618	-0.804405194
7.742886619	2.15347437	-0.815070378
7.382944885	1.203112345	-0.818700981
4.458785303	0.721085031	-0.833618251
4.219396681	0.841699614	-0.836015457
3.769211176	1.04681593	-0.839776306
3.717674281	0.596837205	-0.840742339
3.17242025	0.505383693	-0.846180135
3.032643149	0.600120276	-0.845551244
2.898622999	0.687848516	-0.846320101
13.56535056	3.209884909	-0.766429597
9.518279934	1.885997374	-0.796906523
8.587173394	2.02670769	-0.807778518
7.752334737	2.130500332	-0.81537305
7.385619536	1.180299199	-0.818592202
4.855287585	1.141720186	-0.82812654
4.223885669	0.829128867	-0.836396927
3.028789204	0.589707334	-0.843968322
2.891353395	0.676760135	-0.843587406
2.770969565	0.760010868	-0.848603397
13.56054955	3.164847919	-0.7656061
11.73273854	3.190112838	-0.784776207
9.523042819	1.856596095	-0.796824686
8.57298304	1.995611812	-0.805863957
7.387241764	1.15732713	-0.818374644
3.999677222	0.924788416	-0.838719453
3.028689306	0.580049539	-0.843440699
2.914036448	0.672646167	-0.849599369
13.54878809	3.118303012	-0.764398331
11.72994176	3.150736932	-0.783938822
9.506181567	1.823053638	-0.794942132
8.576153789	1.96863255	-0.805590432
7.385845091	1.13390383	-0.817830634
4.867971846	1.113226733	-0.829109301
3.98147988	0.907722034	-0.834315682
3.532993628	0.668276596	-0.837989004
2.776506998	0.743242212	-0.848886636
13.5738713	3.080256615	-0.765276725
11.72894307	3.111920243	-0.783230361
9.491163242	1.790001751	-0.793223254
8.593807453	1.944949737	-0.806684474
7.38339075	1.110351999	-0.817177843
4.870401894	1.098069716	-0.828945508
4.457572202	0.664863883	-0.83180329
4.22361835	0.788776472	-0.83487099
3.785554204	1.001483309	-0.840615896
3.73051104	0.552027885	-0.842049884
3.20555821	0.846965589	-0.842784829
2.908723025	0.652647342	-0.846866619
2.786191814	0.736681749	-0.851152627
13.55110146	3.03140492	-0.763465101
11.7355389	3.075162898	-0.783037123
8.583211793	1.914888945	-0.805134576
7.375944359	1.086101929	-0.8159811
4.871821454	1.082694372	-0.828617919
4.466402478	0.652179727	-0.833073763
4.218294229	0.774396872	-0.833345109
3.731221313	0.54044031	-0.84183197
3.538943741	0.646936228	-0.838442954
3.380970984	0.748649465	-0.843003298
2.907893872	0.64309726	-0.846046816
13.55448752	2.988526399	-0.763135667
11.72366436	3.033644456	-0.781620082
8.590990996	1.888974674	-0.805316906
7.384161549	1.064176647	-0.816525054
4.869338506	1.066476404	-0.827635217
4.216786168	0.760754535	-0.832582112
3.776480439	0.974328582	-0.837257593
3.729962897	0.528579762	-0.841178169
3.378505582	0.737237545	-0.841820624
33.3733218	7.266799172	-0.623613504
11.70971123	2.991733691	-0.780074236
8.610371113	1.865561238	-0.80659328
7.387391458	1.041517353	-0.816525053
4.222000015	0.748328019	-0.833154375
3.78418931	0.963944754	-0.838307053
3.545723953	0.625717249	-0.839123878
3.39120065	0.729115558	-0.844422487
3.181583436	0.437010773	-0.845925444
11.71012562	2.953598389	-0.779494521
8.599498239	1.835602202	-0.80504338
7.391536854	1.018984021	-0.816633832
4.240716393	0.738233598	-0.836396927
3.993976581	0.846339346	-0.83411547
3.550505714	0.615335123	-0.839804801
3.228870288	0.810869575	-0.84623385
11.72106898	2.918140402	-0.779623327
7.393643253	0.996169664	-0.816525054
4.884741192	1.022828081	-0.82861792
4.009022893	0.836684146	-0.83671775
3.17269933	0.415972209	-0.8428688
11.72027588	2.87978573	-0.778979239
7.403563544	0.974389519	-0.817286622
4.574224585	1.120207314	-0.83013903
4.471005102	0.582956202	-0.832166282
3.397767579	0.697872874	-0.844422487
3.2281364	0.789660576	-0.844755715
11.73390467	2.844990741	-0.779301283
8.58285238	1.749613773	-0.801943581
7.394686398	0.950150864	-0.8159811
4.242488538	0.698374592	-0.835443253
4.010239937	0.811292408	-0.835917022
3.729885648	0.470326086	-0.839434792
3.217354226	0.776569502	-0.841306694
2.92206729	0.590034712	-0.846866619
11.75034244	2.810835527	-0.779816565
8.615518338	1.728759421	-0.804496388
7.406443865	0.928572781	-0.816960227
4.243641795	0.685199059	-0.835252516
3.562597225	0.57249119	-0.840939673
3.218778744	0.766470606	-0.841060348
24.10830631	5.697324013	-0.691089315
11.75988174	2.775001934	-0.779880998
8.597333851	1.697689109	-0.802308242
7.811942187	1.840520558	-0.813960479
7.416164722	0.906690234	-0.817721854
4.896925047	0.962807806	-0.82861792
4.246693754	0.672330056	-0.835443253
3.567222926	0.562013339	-0.841620596
3.217340949	0.755705465	-0.840074904
2.928464817	0.572647912	-0.847686479
24.0409767	5.603592231	-0.688663167
11.77125538	2.73958852	-0.780074235
8.595658847	1.669975407	-0.801670055
7.800108635	1.812491912	-0.812144266
7.420885904	0.884168658	-0.817939412
4.234185978	0.65704031	-0.832582112
3.221532833	0.746268691	-0.840567656
3.190234016	0.368588424	-0.845925442
23.96063271	5.507416973	-0.685874504
11.78155083	2.703908398	-0.780203042
7.801753777	1.787664117	-0.811740684
7.413688982	0.860251782	-0.816851448
4.474536358	0.513745093	-0.831258801
3.389934319	0.642235387	-0.839928355
2.937594469	0.555741313	-0.849326085
11.79076333	2.667970619	-0.780267473
7.810112725	1.764378009	-0.812043356
3.74539176	0.414022362	-0.841396083
11.79110136	2.630046647	-0.779752191
10.7699633	1.190192275	-0.786015162
4.4903136	0.487660443	-0.833618251
3.576742594	0.518614935	-0.84230152
3.402412937	0.622998028	-0.842057194
3.199261003	0.339823511	-0.847453766
2.935271539	0.536668025	-0.847686478
23.99663996	5.283646621	-0.685484094
11.7854698	2.590859845	-0.778850433
10.7785224	1.157677536	-0.786376962
4.488854945	0.473572552	-0.833073763
3.405264435	0.612728689	-0.842293705
3.064009084	0.432222148	-0.846342731
23.9892919	5.204914355	-0.684814793
11.77970897	2.551732707	-0.777948675
10.76416802	1.122741572	-0.78507466
9.564447011	1.351622322	-0.793305091
8.640851448	1.541601324	-0.803584675
4.489308357	0.45969852	-0.832892267
4.258349498	0.594048396	-0.835443252
3.730594531	0.377665489	-0.837255586
3.580822157	0.496792567	-0.842528495
3.243969958	0.699215666	-0.843523926
2.940403817	0.518981876	-0.848232994
11.80797661	2.519954882	-0.779301283
10.80427746	1.09342802	-0.787751624
9.575459504	1.323227671	-0.79387807
8.655349516	1.516803357	-0.804496389
7.855502228	1.673585653	-0.814565883
4.494611631	0.446312044	-0.83361825
3.729793001	0.366027746	-0.836819756
3.397472222	0.58982854	-0.839455331
3.049396932	0.411093956	-0.841593912
2.938191073	0.509301238	-0.847139906
11.79709731	2.479816253	-0.77807748
10.80460293	1.05998365	-0.787534544
9.595276759	1.295978812	-0.795187644
8.65603595	1.489566372	-0.804131667
7.85378436	1.648047281	-0.813859569
3.563528174	0.47212552	-0.83776203
2.935946528	0.499639069	-0.846046817
130.6398705	12.53611366	0.089332224
11.80269505	2.443206983	-0.777948674
10.83461291	1.029377672	-0.789488027
9.596243173	1.26614366	-0.794942132
8.670385154	1.464661721	-0.805043381
7.855880657	1.623340444	-0.813556838
3.833145424	0.790616965	-0.840196101
3.242673859	0.667765509	-0.84155304
2.938414234	0.490787811	-0.846320101
10.84665897	0.996954244	-0.790139148
9.607990364	1.237715599	-0.795596948
8.692521542	1.44098599	-0.806684476
7.861798748	1.599429613	-0.813657748
4.500488029	0.405102151	-0.833981243
3.197267501	0.280202629	-0.845416003
3.05592251	0.383370814	-0.8423854
2.927565694	0.479748276	-0.842767606
11.82431358	2.372115038	-0.778399583
10.88543125	0.966849147	-0.792743752
9.62064208	1.209351614	-0.796333602
8.708695992	1.416229023	-0.807778518
7.85691404	1.573348977	-0.812648761
4.497790736	0.390952335	-0.833255258
3.749562214	0.321564176	-0.840306508
2.946119083	0.473512047	-0.847686477
11.82566113	2.334667619	-0.778013107
10.86250889	0.931233605	-0.790862688
9.646070613	1.182498069	-0.798134319
4.500928928	0.377315748	-0.83361825
4.052022075	0.640032966	-0.838118935
3.841219196	0.755492857	-0.840405971
3.750531127	0.310059176	-0.840306508
3.261996816	0.640506734	-0.845002062
3.066837511	0.365640533	-0.844759811
2.946607882	0.464321523	-0.847413193
11.83472719	2.298756602	-0.778141912
10.87326693	0.898560629	-0.79144145
9.658560135	1.15396289	-0.798870974
3.745627494	0.298086692	-0.838998962
3.26204316	0.63012842	-0.844509311
3.192962571	0.250234993	-0.843632931
3.056447093	0.35489487	-0.84159391
11.83780366	2.261688332	-0.777884301
9.671954185	1.125477348	-0.799689523
3.75041695	0.28689165	-0.839870622
3.592903158	0.408875265	-0.842755469
3.057521668	0.34551616	-0.841593912
2.933232417	0.443786427	-0.842767605
11.84272496	2.224991305	-0.777755436
10.89647619	0.833195348	-0.792743752
9.665458847	1.094677401	-0.798870973
3.420535007	0.507699247	-0.841820623
3.206011876	0.231474299	-0.846689576
3.072949204	0.337714741	-0.845551243
11.86715887	2.191910395	-0.778914865
9.647968089	1.062727483	-0.797152095
4.496392341	0.321422944	-0.831984785
3.841546711	0.70670625	-0.838516979
3.202848167	0.221370584	-0.845670695
2.953035883	0.428265193	-0.847686479
11.87382816	2.155492121	-0.778914865
9.628390183	1.030683065	-0.795269541
4.274992347	0.449925672	-0.835252516
3.76068871	0.252885408	-0.841613999
3.082638913	0.319649033	-0.847661842
11.88824458	2.120455494	-0.779430148
9.657280358	1.003817726	-0.797397665
4.279282587	0.437107313	-0.835824723
3.8544746	0.684660563	-0.840405971
3.746837186	0.240409202	-0.838345217
3.188704467	0.200741997	-0.841595168
3.07688702	0.309514319	-0.845815053
11.88977921	2.083111701	-0.779108045
9.675189419	0.97568492	-0.798625402
4.496215939	0.279842376	-0.831440298
4.28060351	0.423976616	-0.835824723
3.746583094	0.228853425	-0.838127245
3.596813915	0.35352433	-0.842301521
3.435172757	0.466863413	-0.843949462
3.082622298	0.300541106	-0.847134222
2.945413862	0.399516527	-0.84440721
11.89808154	2.046963103	-0.77923691
9.711862469	0.949293725	-0.801408402
4.503924727	0.266453418	-0.832710769
3.601759668	0.342856966	-0.843209419
2.963790513	0.392752862	-0.849326083
11.92300113	2.013608057	-0.780460712
4.509630276	0.252909632	-0.83361825
3.066157361	0.279954438	-0.84212159
2.953533724	0.382176943	-0.846046816
11.87300622	1.967719104	-0.776789304
8.75053533	1.121454457	-0.807687383
4.952667583	0.630596915	-0.828945506
4.651469443	0.76722062	-0.831006992
4.054196083	0.513467099	-0.834916197
3.284890662	0.540931615	-0.846233851
3.209277521	0.162525849	-0.846434884
3.072766933	0.271054806	-0.843704512
11.93513142	1.940412008	-0.780460712
8.756898861	1.094973645	-0.807960849
7.471562659	0.382067987	-0.818809818
4.283527781	0.371245582	-0.835443251
3.858732293	0.624518191	-0.839146643
3.598940709	0.30919255	-0.841847572
3.202033757	0.152311588	-0.844397122
2.944366474	0.362636171	-0.842767605
7.457806134	0.358427952	-0.817177843
4.281711817	0.357856872	-0.834870988
3.764277056	0.172025218	-0.841396084
3.604725213	0.298551639	-0.842982444
3.271874536	0.518188397	-0.842045789
2.949285493	0.354059902	-0.843860694
10.91292108	0.498374022	-0.792454371
7.454898102	0.335367341	-0.816742669
4.277897378	0.344325315	-0.833917314
3.761861849	0.160351075	-0.840742339
3.204840438	0.132741456	-0.844906563
2.945580593	0.344451323	-0.842494317
10.91041271	0.464721541	-0.79216499
7.449932966	0.312244715	-0.816089879
3.750633445	0.148346229	-0.838127244
3.597749605	0.275757985	-0.840939673
3.088365264	0.234275315	-0.847134221
2.948535117	0.33563037	-0.843040834
10.91876333	0.431522383	-0.792671451
7.454829271	0.289541496	-0.816525054
4.275034819	0.317706378	-0.832963581
3.750095677	0.13680318	-0.83790933
3.595664924	0.264504607	-0.84025875
3.272671005	0.487481809	-0.841060348
3.086183263	0.224589217	-0.846342731
2.961024158	0.327853158	-0.846320103
10.91006842	0.397658749	-0.79194791
7.458662679	0.266775628	-0.816851448
4.27598956	0.304589275	-0.832963582
3.745620611	0.125134461	-0.836819756
3.59257358	0.253198133	-0.839350852
3.282782392	0.478697714	-0.843277579
2.958190433	0.318355607	-0.845227014
10.88631736	0.363353496	-0.790139149
7.453484789	0.243696603	-0.816198658
4.517427483	0.142254443	-0.834162739
3.449809947	0.361472974	-0.844422487
3.290951782	0.469582355	-0.845002061
2.848221689	0.406916908	-0.849736418
10.86345462	0.329227937	-0.788402746
7.45519097	0.220857934	-0.816307437
4.503097851	0.127975458	-0.831440297
4.278757682	0.278410287	-0.833154375
3.760952059	0.102548435	-0.840088594
3.435436269	0.34931479	-0.840637948
3.201665969	0.083440163	-0.843632931
3.093895447	0.19654213	-0.847925653
2.965830315	0.300780839	-0.84686662
2.847556978	0.397911317	-0.849169878
10.8554401	0.295653378	-0.787751624
7.449871404	0.197826366	-0.815654706
3.753443434	0.090820645	-0.838345217
3.435524996	0.338678065	-0.840401438
3.280327102	0.447546397	-0.841553039
2.964824308	0.291492148	-0.846320101
10.84133967	0.261986528	-0.786666343
4.503798277	0.100342555	-0.831440296
3.764437706	0.07953158	-0.840742339
3.443318393	0.328782925	-0.842057194
3.300898562	0.440041766	-0.846480198
3.081561418	0.176781227	-0.844232133
2.964747099	0.282303637	-0.846046816
10.86303301	0.229166308	-0.788185725
4.29388034	0.239729231	-0.835633988
3.752954299	0.067770616	-0.838127246
3.201331439	0.053952984	-0.843378239
3.097499752	0.168162941	-0.848453332
2.972304451	0.273824312	-0.847959708
10.85072068	0.195604218	-0.787245163
3.753144528	0.056256399	-0.838127245
3.455916415	0.308599525	-0.844659055
3.290076025	0.41806916	-0.843031175
2.961632718	0.263680443	-0.844680496
10.87520442	0.162671757	-0.788981566
4.288407291	0.213037019	-0.834298784
3.299037711	0.408927124	-0.845002061
2.959552559	0.254345947	-0.843860694
10.85570611	0.129069183	-0.787534544
10.87799254	0.095957298	-0.789126286
4.29551779	0.186975966	-0.835443251
3.292821937	0.387657059	-0.842784829
3.215290608	0.014725661	-0.846944326
3.097402697	0.130058248	-0.847925654
10.85928574	0.06247461	-0.787751624
6.904302002	0.287640751	-0.821922905
4.507832589	0.017436771	-0.831984786
4.301956642	0.174034702	-0.836587664
3.753552295	0.010195306	-0.838127245
3.439099238	0.26460161	-0.839691843
3.094895428	0.120442418	-0.84713422
10.82751023	0.0290728	-0.785436401
6.91308991	0.266763602	-0.822867816
4.67829025	0.52292251	-0.829791834
3.883756039	0.434318273	-0.838936715
3.759421629	-0.001322538	-0.839434791
3.293212218	0.367230564	-0.842292137
3.095250541	0.110946842	-0.847134222
10.83652479	-0.004149106	-0.786087522
4.292151544	0.147264852	-0.834489519
3.871462495	0.420921522	-0.835998267
3.746712382	-0.012812887	-0.836601841
3.084007713	0.101071089	-0.843968322
2.859376281	0.310479354	-0.849453119
4.090909332	0.277332345	-0.837718571
3.751535192	-0.024339237	-0.837691415
3.098765315	0.092038563	-0.847925652
4.303768174	0.121229984	-0.836587662
4.082941617	0.264210887	-0.835917022
3.891479535	0.398953578	-0.839776307
3.766081851	-0.03598856	-0.840960254
3.4440265	0.222503948	-0.840164924
3.10192593	0.08260829	-0.848717143
4.519369683	-0.051847224	-0.834162741
4.291362672	0.107705449	-0.83410805
4.088622363	0.251984691	-0.836917901
3.759122387	-0.047456326	-0.839434792
3.456330557	0.21265278	-0.8430033
2.974504474	0.182226488	-0.846593388
7.46376244	-0.099538203	-0.816960227
4.513289219	-0.065626423	-0.833073761
4.094266819	0.23972614	-0.837918783
3.461816498	0.202331355	-0.844185974
3.096588047	0.063455102	-0.84713422
2.977930622	0.173267608	-0.847413193
7.467397496	-0.12250146	-0.817395459
4.521915802	-0.079628519	-0.834707227
4.295868436	0.081446547	-0.834870989
4.096939576	0.22727251	-0.838319089
3.761687799	-0.070575899	-0.840088594
3.456600007	0.19138741	-0.842766786
3.098697028	0.053988213	-0.847661842
2.982290104	0.164342349	-0.848506282
7.469968224	-0.145468593	-0.817721854
4.088811446	0.214240805	-0.836517537
3.445527416	0.18017295	-0.839928356
3.216404971	-0.074092702	-0.847453765
3.094025793	0.044412071	-0.846342732
2.978937625	0.15499211	-0.847413192
7.467499233	-0.168340653	-0.817504238
4.305121411	0.055199329	-0.836587662
4.089449441	0.201695503	-0.836517537
3.895193071	0.339044873	-0.83935651
3.444123116	0.169505852	-0.839455332
3.301232648	0.286300494	-0.842292137
3.204562445	-0.083657312	-0.844397122
10.83515314	-0.270139223	-0.786232242
9.76447372	0.112622121	-0.801981322
7.479866049	-0.191580699	-0.818918597
4.50722885	-0.120874668	-0.83216628
3.896215228	0.327093001	-0.839356513
3.316582567	0.277382734	-0.845987447
3.197524465	-0.093290965	-0.84261405
10.8342736	-0.303379729	-0.786232242
9.763776766	0.082656175	-0.801899485
7.471293964	-0.214299688	-0.818048249
4.514700839	-0.134937118	-0.833618252
4.087673526	0.176472537	-0.83591702
3.895251303	0.31498043	-0.838936717
3.755660952	-0.116580874	-0.838998962
3.200122584	-0.103193899	-0.843378238
10.83129833	-0.336555425	-0.786087522
9.75102773	0.052631009	-0.800835422
7.481530693	-0.237567334	-0.819244992
3.899123407	0.303255937	-0.839566437
3.759187243	-0.128235625	-0.839870621
3.456216493	0.138226907	-0.842057193
9.765096469	0.022747532	-0.801981322
7.47281884	-0.260242463	-0.818374644
3.769504357	-0.140166974	-0.8422678
3.464392087	0.127909531	-0.843949462
3.094343078	-0.003053054	-0.846342733
2.871093328	0.214037746	-0.850302901
9.769107258	-0.007214413	-0.802308731
7.471985262	-0.28316752	-0.818374644
3.763205549	-0.151495443	-0.840960253
3.313936388	0.23624879	-0.844509311
3.202902122	-0.132802913	-0.844397121
2.967826266	0.099681281	-0.843587407
2.868866549	0.205023254	-0.849453118
7.472074336	-0.306130598	-0.818483423
4.51565246	-0.190453596	-0.83416274
3.903700322	0.267490198	-0.839986175
7.479045096	-0.329403081	-0.819353771
4.50915243	-0.204039801	-0.833073762
3.892795027	0.254746392	-0.83746752
3.445997686	0.095480476	-0.839218763
3.309520734	0.215532505	-0.843031175
3.099970999	-0.031591474	-0.847925653
2.973189905	0.081601121	-0.844953726
7.477006466	-0.352300117	-0.819244992
4.502611824	-0.217587923	-0.831984786
4.296345146	-0.050366699	-0.834870988
3.902340747	0.24334995	-0.839356512
3.767500495	-0.186414029	-0.8422678
3.319839798	0.205978193	-0.845494755
3.20347569	-0.162373924	-0.844906562
3.076711795	-0.040794981	-0.841593911
2.986889415	0.072807285	-0.848779568
7.473904461	-0.375137942	-0.819027376
4.504869297	-0.231552166	-0.832529274
4.296170413	-0.063547462	-0.834870989
4.105213761	0.088971252	-0.838919606
3.905996999	0.23155016	-0.839986176
3.767885537	-0.198022902	-0.842485715
3.471774935	0.074879162	-0.845368649
3.317553607	0.195620942	-0.844755716
3.201031267	-0.172097457	-0.844397121
3.104541094	-0.050690682	-0.849244765
2.985175328	0.063602314	-0.848232995
9.772829657	-0.157144033	-0.802718035
7.467755437	-0.397801405	-0.818483424
4.515921034	-0.246013747	-0.834707229
4.301844044	-0.076832808	-0.836015456
3.299752263	0.18441439	-0.840074904
3.214969948	-0.18274042	-0.848217898
2.98631814	0.054461167	-0.848506281
9.763333417	-0.186954183	-0.801981322
7.463522316	-0.420542517	-0.818157029
4.514162973	-0.259810722	-0.834525731
4.30256949	-0.090050862	-0.836206191
4.099804437	0.063689146	-0.837718571
3.608428139	-0.078232117	-0.841166647
3.300302647	0.174290022	-0.840074905
3.205706619	-0.192082395	-0.845925443
3.090670906	-0.069435529	-0.845551242
9.76968865	-0.217061758	-0.802554301
7.460212322	-0.443320365	-0.817939412
4.305217022	-0.103321188	-0.836778396
4.103899401	0.051159677	-0.838519242
3.192556045	-0.201126071	-0.84261405
3.09815741	-0.07911423	-0.847661842
2.97601552	0.036008419	-0.845500299
9.771965471	-0.247109296	-0.802799872
7.453856264	-0.46589582	-0.817395459
3.765171769	-0.244245745	-0.842485715
2.98092155	0.026921398	-0.846866619
9.769169198	-0.277031597	-0.802636139
7.449416107	-0.48856658	-0.817069064
3.753693781	-0.255068152	-0.840088594
3.611449184	-0.111560169	-0.842074546
3.318227392	0.144624886	-0.844262966
3.201873715	-0.221445358	-0.845416004
9.76129983	-0.306782544	-0.802063218
7.451849051	-0.511691144	-0.817504238
4.306046367	-0.14300615	-0.837159926
3.897874078	0.159135687	-0.837467518
3.758734568	-0.266998045	-0.841396083
3.59356968	-0.122044398	-0.837989005
3.189605087	-0.230431368	-0.842359357
3.080910275	-0.107056113	-0.843176833
2.992573748	0.008663719	-0.850145886
9.753340316	-0.336487789	-0.801490239
7.452227273	-0.534692987	-0.817721854
3.901275336	0.147287087	-0.838097184
3.613616316	-0.133825627	-0.842755469
3.326800341	0.124551984	-0.846233851
3.185990268	-0.239997951	-0.841595167
2.981042984	-5.15412E-4	-0.846866618
9.666611571	-0.363190975	-0.794450991
7.444604137	-0.557108482	-0.817069065
4.998558158	-0.011052401	-0.829928267
3.612215714	-0.144872398	-0.842528496
4.717878607	0.148886059	-0.832048584
3.759036495	-0.301815524	-0.842049885
3.617592104	-0.156205908	-0.843890341
3.323627108	0.104015511	-0.845248408
3.208553208	-0.261506139	-0.847963207
3.092321621	-0.135958308	-0.846606541
3.912238882	0.111653397	-0.840196102
3.742531407	-0.312049187	-0.838563133
3.614177229	-0.167168796	-0.843209418
3.469523372	-0.031625517	-0.844659056
3.098634619	-0.145762034	-0.848453332
8.020169735	0.207209694	-0.813657748
4.511148626	-0.384840903	-0.835614709
3.901811658	0.099376459	-0.837887258
3.750307526	-0.324286337	-0.840524424
8.024745786	0.182693758	-0.814061389
4.494273417	-0.397293591	-0.832710769
3.760959869	-0.336835309	-0.843139459
3.605303106	-0.188934087	-0.841393623
3.323474584	0.073399861	-0.84500206
2.986455279	-0.046331715	-0.84850628
2.876429785	0.064029027	-0.849736418
8.029247901	0.158151703	-0.814464974
3.075011659	-0.173028572	-0.8423854
2.96898722	-0.055172112	-0.843587407
2.879489325	0.055259168	-0.850586143
4.496646132	-0.425325452	-0.83361825
3.752993016	-0.359347646	-0.841831969
3.613798263	-0.211621601	-0.843663368
2.977459505	-0.06446798	-0.846046817
3.749930631	-0.370667953	-0.841396084
3.082556319	-0.192434113	-0.84475981
2.967631186	-0.073364664	-0.843314121
3.915586556	0.039642756	-0.840615896
3.754601294	-0.382764743	-0.84270363
3.598825647	-0.232910888	-0.840485725
3.455727071	-0.09513514	-0.841584112
3.312495572	0.032496098	-0.84204579
2.969315312	-0.082522331	-0.843860694
3.912756477	0.027609022	-0.839986174
3.753409185	-0.394281898	-0.842703629
3.600037358	-0.244082597	-0.840939673
3.450563041	-0.105588125	-0.840401437
3.321302162	0.022392158	-0.844262966
2.964240675	-0.091483304	-0.842494317
4.481310412	-0.479428116	-0.83180329
3.908912116	0.015589126	-0.839146643
3.743449172	-0.404850889	-0.840742338
3.45410719	-0.116304597	-0.8413476
2.96779171	-0.100707525	-0.843587408
2.879039046	0.011079895	-0.8503029
4.104403756	-0.150378355	-0.839119759
3.911874555	0.003599379	-0.839776305
3.751889291	-0.417412879	-0.842921544
3.455675981	-0.126972454	-0.841820623
3.085734105	-0.23067878	-0.846342731
2.870428252	0.002240339	-0.847753672
4.486101532	-0.507800768	-0.83325526
3.752530438	-0.429143328	-0.843357374
3.466920454	-0.138037583	-0.844659055
2.988263598	-0.11976313	-0.849599371
2.866585278	-0.006557246	-0.846620705
4.486475941	-0.521788724	-0.833618251
3.446095422	-0.14779899	-0.839691844
3.198674329	-0.37965482	-0.848472648
3.072723597	-0.248674435	-0.843176833
2.875182908	-0.015398	-0.849169877
4.497547665	-0.537066386	-0.8359777
4.097952104	-0.187923503	-0.838118936
3.459213983	-0.158995332	-0.843003298
3.324162155	-0.028581613	-0.845002061
2.873204213	-0.024202707	-0.848603395
4.295669913	-0.367544261	-0.83773213
4.095399006	-0.200399186	-0.837718572
3.459680564	-0.169654879	-0.843239812
3.323089738	-0.03876856	-0.844755714
3.194365476	-0.399034637	-0.847963207
2.858731593	-0.032852152	-0.844354715
4.294522267	-0.38072148	-0.837732131
4.094764652	-0.212962748	-0.83771857
3.915380187	-0.056462491	-0.840615897
3.600755956	-0.321940921	-0.842528494
3.459143581	-0.180268238	-0.84323981
3.329738682	-0.049063427	-0.846480197
2.969277598	-0.155519062	-0.844680496
2.878755205	-0.041915678	-0.8503029
4.713593036	-0.082684966	-0.831006993
3.910300467	-0.068388955	-0.839566436
3.464395102	-0.191201151	-0.844659054
3.188980576	-0.418250144	-0.847199018
2.962063281	-0.164255114	-0.842767604
2.878613057	-0.050747376	-0.8503029
4.71922502	-0.097267441	-0.832048584
3.910072513	-0.080385266	-0.839566438
2.974989536	-0.174128721	-0.846593389
4.723826996	-0.111861933	-0.832916547
3.916649453	-0.092542485	-0.841035633
3.190186212	-0.438336022	-0.848217899
4.290503384	-0.433491857	-0.837922865
3.915369973	-0.10453207	-0.840825766
3.456671029	-0.222703676	-0.843239811
3.086825268	-0.316668156	-0.848717143
2.968105522	-0.192007049	-0.844953726
4.47913531	-0.632698034	-0.834888724
3.916985321	-0.116601948	-0.841245561
2.960784332	-0.200656865	-0.843040834
2.880649613	-0.086154576	-0.851152627
7.405823866	-1.060187172	-0.818809818
