-1.922739248	5.017362785	-0.947143126
-1.535790807	4.006997795	-0.921214251
-1.776164121	5.961479731	-0.972428112
-1.859905604	5.500573644	-0.964072991
-1.910133834	5.030603719	-0.948531915
-1.657683875	6.491930942	-0.98331071
-1.757586898	5.965953007	-0.972273676
-1.835819542	5.484737608	-0.960305798
-1.899545811	5.049344365	-0.950962234
-1.738722773	5.969420063	-0.971964746
-1.81681224	5.483789271	-0.959159245
-1.884733623	5.056994125	-0.951309432
-1.621402435	6.516382291	-0.985488666
-1.719307217	5.970928659	-0.971346944
-1.798135463	5.483712962	-0.958176484
-1.864434716	5.049818413	-0.948879111
-1.705037598	5.990429184	-0.973663717
-1.777953746	5.478882002	-0.956374813
-1.857389864	5.07863758	-0.953218987
-1.577427028	6.509861338	-0.983020316
-1.686651113	5.995632133	-0.973663717
-1.760231511	5.48149341	-0.955883433
-1.83743953	5.072274625	-0.950962235
-1.668248907	6.000778253	-0.973663717
-1.743705009	5.487807833	-0.956047226
-1.830516504	5.101989046	-0.955475738
-1.536999411	6.517491665	-0.982729805
-1.649830866	6.005868019	-0.973663716
-1.730410576	5.504424694	-0.958012689
-1.632173749	6.013761979	-0.974127083
-1.714101041	5.511591497	-0.958340276
-1.495652782	6.521013757	-0.981858623
-1.600923083	5.971026239	-0.966404525
-1.702694882	5.534739394	-0.961452295
-1.686280907	5.541824457	-0.961779881
-1.755564599	5.088691061	-0.948879111
-1.667280975	5.540359255	-0.960633385
-1.744719272	5.108032249	-0.951483058
-1.647461762	5.535993355	-0.958995451
-1.7255698	5.103098972	-0.949573447
-1.63186224	5.54575366	-0.959814419
-1.722096797	5.144790718	-0.956343759
-1.614013631	5.547892106	-0.959323037
-1.708163138	5.155658648	-0.957385349
-1.59316813	5.53954481	-0.957029986
-1.579132849	5.55484473	-0.958831658
-1.676192401	5.165106078	-0.957211722
-1.556746503	5.54066887	-0.955555846
-1.658531535	5.164598251	-0.956170131
-1.641486093	5.16590802	-0.955475737
-1.523764373	5.553921879	-0.95621102
-1.625629592	5.170919848	-0.955475738
-1.506976137	5.559522575	-0.956374813
-1.610342731	5.17776358	-0.955822935
-1.488636761	5.559355362	-0.955555846
-1.595318666	5.185503661	-0.95634376
-1.470817252	5.561034855	-0.955064465
-1.578542151	5.18754687	-0.955822934
-1.453749245	5.565521403	-0.955064466
-1.561200632	5.187650204	-0.954954971
-1.54331139	5.185807944	-0.95373981
-1.520722005	5.167844197	-0.949573447
-1.505135245	5.173430865	-0.949747074
-1.494972659	5.197899711	-0.953392613
-1.479826675	5.205303892	-0.953913381
-2.762112763	11.86580778	-1.115390759
-2.730597586	11.89557937	-1.117396575
-1.393948241	5.205510643	-0.949920643
-1.377719553	5.208810622	-0.949747074
-1.367208498	5.233975882	-0.953566184
-1.097692859	6.062597481	-0.963161021
-1.080991409	6.076636787	-0.964859992
-1.06353382	6.08673736	-0.96594116
-2.509127161	11.93408	-1.116484862
-1.045690352	6.094840407	-0.966713398
-0.669936467	5.017975541	-0.934349385
-1.03141696	6.124325253	-0.970883578
-1.01262291	6.127460975	-0.970883578
-0.639134135	5.021991744	-0.934349385
-0.994135571	6.132489211	-0.971192508
-0.975471789	6.136485994	-0.971346944
-0.487969401	4.070892671	-0.915489486
-2.31247831	11.90273435	-1.110102872
-0.956488568	6.138473809	-0.971192508
-0.473327284	4.053952237	-0.911348988
-2.264548173	11.85010686	-1.104541402
-0.936309471	6.132588991	-0.969802409
-2.23112464	11.87265794	-1.106000166
-0.916467711	6.128592873	-0.968721299
-0.897947355	6.13333093	-0.969030171
-0.546905911	5.035838197	-0.934893873
-0.43703821	4.067840703	-0.913528194
-0.360966739	3.398313336	-0.90018081
-0.878285592	6.130188726	-0.968103438
-0.533310771	5.055095733	-0.938160862
-0.350439965	3.398442963	-0.899926062
-2.117034695	11.86621995	-1.103538494
-0.860159919	6.137746699	-0.968875735
-0.515194944	5.031273365	-0.933441906
-0.338664703	3.386030986	-0.896360032
-2.079416249	11.86579301	-1.102900366
-0.841191451	6.139378013	-0.9687213
-0.500242655	5.037722955	-0.934349386
-0.330513778	3.410154198	-0.902473266
-2.041989493	11.86622863	-1.102353315
-0.822221027	6.140950627	-0.968566805
-0.318153019	3.390933558	-0.897124164
-2.004745366	11.86752776	-1.101897459
-0.803761302	6.146383191	-0.969030171
-0.950212561	5.653221786	-0.951788653
-0.619814003	4.763007853	-0.933293098
-0.309583243	3.412117881	-0.902473265
-1.965232562	11.85495612	-1.100165228
-0.934951154	5.668763639	-0.953917968
-0.452973859	5.032319294	-0.932534423
-0.298100473	3.40149185	-0.899416678
-1.927094591	11.85011731	-1.099162321
-0.916925092	5.667710072	-0.953262794
-0.438639837	5.04642145	-0.934893874
-1.897002997	11.8953106	-1.102809172
-0.901078042	5.680239633	-0.954900671
-0.423648465	5.053623248	-0.935982852
-0.275810488	3.385908215	-0.894831711
-1.866190765	11.93747831	-1.106182556
-0.885314357	5.693699925	-0.956702399
-0.407825606	5.050978313	-0.935256866
-0.557532151	4.738083127	-0.926998669
-0.265270263	3.384810134	-0.894322268
-1.819304449	11.87621094	-1.099982838
-0.866802099	5.689562487	-0.955555845
-0.545674727	4.763177506	-0.931576425
-0.440479675	3.870620271	-0.907897088
-0.255610536	3.395250966	-0.896869473
-1.788771119	11.92112896	-1.103629689
-0.851817634	5.708781911	-0.958340276
-0.531058957	4.764829088	-0.931576424
-0.428924173	3.874857521	-0.908578013
-0.245819572	3.404699668	-0.899161928
-1.747991365	11.89798846	-1.100985746
-0.834727124	5.714296981	-0.958831658
-0.51622668	4.764484099	-0.931194954
-0.416930071	3.87518655	-0.908351035
-0.234039387	3.386143655	-0.89406752
-1.712897978	11.91315272	-1.101897459
-0.819285897	5.731479251	-0.961288501
-0.500271302	4.75335443	-0.928715342
-0.404735579	3.873541885	-0.907670115
-1.671347582	11.882851	-1.09861527
-0.800605296	5.726149986	-0.959978212
-0.485286907	4.750960367	-0.927952343
-0.393832176	3.884454664	-0.909939859
-0.213501027	3.391376472	-0.895086403
-1.637732787	11.90864007	-1.10052989
-0.781430764	5.716850525	-0.95801269
-0.470612094	4.751450163	-0.927761609
-0.380484017	3.871105907	-0.90653524
-0.204077953	3.408425209	-0.899416677
-0.316920641	3.250625619	-0.893303145
-0.595632542	6.167052989	-0.968566805
-0.764149227	5.721176634	-0.958340277
-0.456501425	4.757757322	-0.928715342
-0.236008062	4.068796035	-0.910041442
-0.192797577	3.394553372	-0.895595842
-0.306221142	3.243900112	-0.891192545
-0.575789793	6.159013891	-0.967022327
-0.744551696	5.707842553	-0.955719638
-0.283800604	5.060447289	-0.935438362
-0.44217497	4.762067911	-0.929287547
-0.183316026	3.41251011	-0.90018081
-1.525021173	11.89950307	-1.098341803
-0.556713629	6.158783436	-0.966713397
-0.726039985	5.702271331	-0.954409291
-0.268013794	5.056384307	-0.934530882
-0.427914091	4.767313051	-0.930050488
-0.172014268	3.396638284	-0.895850591
-0.287413031	3.258208905	-0.894622255
-0.537472427	6.156525429	-0.966095595
-0.708907046	5.707408869	-0.954900672
-0.252990146	5.067004529	-0.936345844
-0.413201411	4.767625261	-0.929859752
-0.333701205	3.884216645	-0.908578011
-0.162098133	3.407775163	-0.898652487
-0.276924784	3.253308747	-0.893039334
-1.448242188	11.87799176	-1.09551547
-0.518664851	6.159130166	-0.966250032
-0.69056347	5.702701579	-0.953754175
-0.236983344	5.057933716	-0.934530883
-0.399226668	4.776696443	-0.931385691
-0.152459121	3.426611702	-0.903492148
-1.410736772	11.87347952	-1.094694952
-0.671677539	5.693037042	-0.951788654
-0.221378684	5.056672022	-0.93416789
-0.38370378	4.76713564	-0.929287548
-0.310403697	3.892986559	-0.910166831
-0.140825187	3.400009887	-0.896360031
-0.654883894	5.70095106	-0.952771414
-0.810653652	5.320622333	-0.948705483
-0.205784009	5.055362124	-0.933804897
-0.369228108	4.77024769	-0.929669018
-0.298309849	3.891978397	-0.909712881
-0.130615771	3.406223937	-0.897888356
-0.637280919	5.701952799	-0.95260762
-0.792872904	5.313344025	-0.946969498
-0.189940558	5.047125646	-0.932171433
-0.353718431	4.759610568	-0.927380139
-0.284939047	3.873450224	-0.905173396
-0.120267275	3.409507757	-0.898652487
-0.23698083	3.256462288	-0.893039336
-0.346802369	3.132165067	-0.895235609
-0.619358319	5.699958524	-0.951952447
-0.779842315	5.338164433	-0.950962234
-0.174625149	5.052598194	-0.933078911
-0.3393935	4.764590291	-0.92814308
-0.400297971	3.710475436	-0.908522929
-0.109246249	3.392463466	-0.89406752
-0.226586683	3.251400356	-0.891456355
-0.601868182	5.701831829	-0.951952447
-0.764297624	5.346381316	-0.952003826
-0.159370781	5.060973682	-0.934530882
-0.324173644	4.756794546	-0.926426464
-0.38810251	3.70395557	-0.906630662
-0.099316508	3.409214943	-0.898397796
-0.218533604	3.280953392	-0.899371075
-0.587087103	5.730148094	-0.956374813
-0.748164297	5.35065184	-0.952351023
-0.143982866	5.066353638	-0.935438362
-0.310152115	4.766583075	-0.92814308
-0.376540522	3.703195354	-0.906157578
-0.088831523	3.408537002	-0.898143048
-0.208650202	3.284496319	-0.900162508
-0.317086493	3.126610984	-0.892776143
-0.569797107	5.734867073	-0.956866193
-0.731478447	5.350970285	-0.952003825
-0.128015188	5.050059394	-0.932352928
-0.295587736	4.768491824	-0.928333815
-0.365940067	3.712068852	-0.908049849
-0.077907086	3.388491539	-0.892793947
-0.197815954	3.272604434	-0.896732855
-0.306363238	3.116081108	-0.889496931
-0.551727503	5.731678617	-0.956047226
-0.714536902	5.349284531	-0.951309431
-0.112937397	5.069108278	-0.935801356
-0.280783624	4.766436102	-0.927761608
-0.353349278	3.700599935	-0.904974904
-0.067588017	3.392581839	-0.893812828
-0.188548227	3.286677691	-0.900426375
-0.298625446	3.136158613	-0.894962322
-0.533499782	5.726468804	-0.954900672
-0.697739966	5.348522357	-0.950788667
-0.097196185	5.059598865	-0.933986394
-0.265611892	4.7574743	-0.925854202
-0.341994343	3.701666763	-0.904974905
-0.057081635	3.386972013	-0.892284506
-0.176842987	3.257383013	-0.892247845
-0.515132295	5.719235728	-0.953426588
-0.081593744	5.054956487	-0.933078911
-0.060937118	4.065418745	-0.907862236
-0.33080902	3.704633961	-0.905447985
-0.16714465	3.26369012	-0.893830767
-0.498010853	5.725703093	-0.954245497
-0.066110684	5.057150004	-0.933441905
-0.048406138	4.060706798	-0.90677266
-0.189841591	3.8802487	-0.905400367
-0.318273506	3.692079092	-0.902136531
-0.15745565	3.270931757	-0.895677556
-0.48003	5.722288919	-0.953426588
-0.050605089	5.05831208	-0.9336234
-0.147072456	3.263690588	-0.893566955
-0.970077471	11.88460527	-1.09168623
-0.463743199	5.739467391	-0.956047226
-0.632052848	5.356681685	-0.950788665
-0.035079347	5.05746043	-0.933441905
-0.136694703	3.255452996	-0.891192545
-0.248648522	3.117356902	-0.888403843
-0.933767399	11.88951158	-1.09186862
-0.446285427	5.742829942	-0.956374812
-0.614491802	5.348812	-0.949052682
-0.019551702	5.054594101	-0.932897417
-0.127419142	3.274169986	-0.896205176
-0.239156976	3.11906403	-0.888677128
-0.89871003	11.91118775	-1.093600851
-0.428224088	5.738269801	-0.955392052
-0.59786015	5.348714235	-0.948705483
-0.004041186	5.050696809	-0.932171432
-0.177923997	4.759595458	-0.925472732
-0.142175022	3.881313155	-0.905173394
-0.272798914	3.693768666	-0.901663448
-0.394190191	3.534977717	-0.904127546
-0.117131673	3.267797881	-0.894358445
-0.335218168	3.001378542	-0.891939966
-0.861228406	11.90097636	-1.092415671
-0.409772561	5.727748678	-0.953426588
-0.582298913	5.35835582	-0.950094271
0.01143408	5.041834646	-0.930537965
-0.163152634	4.755213354	-0.924519055
-0.262219813	3.705249411	-0.90426531
-0.383447615	3.537133863	-0.904373891
0.015641276	3.382581801	-0.891010876
-0.107421606	3.277782413	-0.896996666
-0.220487846	3.127189684	-0.89059002
-0.325283808	2.995718806	-0.889957219
-0.391591768	5.720120961	-0.951952446
0.026881168	5.037842378	-0.929811923
-0.148961525	4.768446523	-0.926998668
-0.447553432	4.237354165	-0.91470763
-0.251638426	3.717669464	-0.907103743
-0.372188057	3.53443836	-0.903388507
-0.096763631	3.257849397	-0.891456355
-0.31639333	2.999563782	-0.890806999
-0.373912137	5.719326757	-0.951624859
0.042279075	5.03085267	-0.928541449
-0.134331442	4.768881337	-0.926998669
-0.435448726	4.247460884	-0.916596621
-0.239354614	3.704849511	-0.903792287
-0.361145723	3.533635352	-0.902895757
-0.307384679	3.002428534	-0.891373482
-0.750529053	11.89050937	-1.090774517
-0.355934365	5.713554808	-0.950478304
0.057702035	5.029716096	-0.928359954
-0.119478417	4.760438829	-0.925281995
-0.094392411	3.876924074	-0.903811548
-0.227211497	3.69295909	-0.900717343
-0.19099077	3.117564919	-0.887310752
-0.297508652	2.996676993	-0.889390735
-0.339628381	5.735300138	-0.953917968
0.073218497	5.03541494	-0.92944893
-0.104873039	4.760782955	-0.925281995
0.063751531	4.062447246	-0.907208491
-0.082497733	3.877195187	-0.903811547
-0.33778977	3.518419246	-0.898461349
-0.288038127	2.994711696	-0.888541011
-0.322307592	5.741240183	-0.954736879
-0.499306554	5.358813034	-0.948705484
0.088926307	5.049915203	-0.932171431
-0.090508569	4.773841421	-0.927761609
0.076141416	4.058329387	-0.906336774
-0.070549084	3.874508899	-0.903130624
-0.204440216	3.692343529	-0.900244262
-0.327531791	3.525229215	-0.899939485
0.067660683	3.38871148	-0.892793946
-0.640792039	11.89194161	-1.090318661
-0.304692194	5.742201532	-0.954736877
-0.482245102	5.353453516	-0.947490323
0.104622116	5.059450594	-0.933986394
-0.075643849	4.760355271	-0.92509126
-0.058794611	3.883471211	-0.905173394
-0.193923116	3.708478075	-0.904028799
-0.316194795	3.520425746	-0.89846135
0.077856356	3.379787262	-0.890501434
-0.162239395	3.118230103	-0.887037466
-0.286975425	5.741139144	-0.954409292
-0.46684281	5.366681065	-0.949573446
0.119560124	5.034527783	-0.92944893
-0.060938243	4.752712716	-0.923565323
-0.370499167	4.256562681	-0.917226284
0.101041423	4.057785847	-0.906336775
-0.046903526	3.885580841	-0.905627342
-0.181732807	3.692557898	-0.90000775
-0.15271907	3.119674054	-0.887310754
-0.566815308	11.87476043	-1.088404041
-0.269776569	5.750861343	-0.955883433
0.135558898	5.054780959	-0.933260407
-0.357111299	4.253782062	-0.916386751
-0.03501758	3.889602054	-0.906535241
-0.171030326	3.706686508	-0.903319206
-0.294587912	3.522299654	-0.89846135
-0.026853331	3.267857013	-0.893830767
-0.531580943	11.90330469	-1.090865712
-0.251786259	5.743777377	-0.954573085
0.150507908	5.035665462	-0.929811923
-0.023124743	3.896508078	-0.90812406
-0.159323123	3.699427957	-0.901426938
-0.283780263	3.523186797	-0.89846135
0.109333796	3.390525568	-0.893558078
-0.016877229	3.277569603	-0.896468988
-0.493983851	11.87901012	-1.088495236
-0.234243789	5.746494282	-0.954900672
0.165826834	5.031248428	-0.929085938
-0.017203517	4.756017026	-0.924137527
-0.330169879	4.245170808	-0.914077908
-0.011167523	3.89558724	-0.907897089
-0.147739719	3.694074073	-0.900007749
-0.272745391	3.521142041	-0.897722311
-0.123923515	3.119025139	-0.88676418
-0.216055366	5.732398825	-0.952443827
0.182784324	5.072974406	-0.936890332
-0.002614876	4.760955642	-0.92509126
7.82062E-4	3.885863933	-0.905627343
-0.136513312	3.697422883	-0.900717343
0.129579161	3.375296287	-0.8897373
0.003209133	3.252532613	-0.889609624
-0.114565339	3.125158251	-0.888403841
-0.22344914	2.997337158	-0.887691285
-0.198467588	5.733034735	-0.952443827
0.19827027	5.070424581	-0.93652734
0.011956928	4.747198381	-0.922420912
-0.304185629	4.248092121	-0.914287836
0.163194226	4.053808233	-0.905900945
0.012665514	3.874156451	-0.902903649
-0.25099711	3.520815766	-0.89722956
-0.385372419	11.90594544	-1.090592245
-0.18087795	5.733616725	-0.952443828
0.213825188	5.069792551	-0.93652734
0.026548491	4.752047738	-0.923374589
0.024643776	3.888707859	-0.906308268
-0.240128273	3.520602343	-0.896983214
0.023193719	3.256309902	-0.890664924
-0.09568098	3.135417247	-0.891136536
-0.347093926	11.84734711	-1.085121851
-0.163455099	5.740060912	-0.953426587
-0.350205465	5.355814253	-0.946101535
0.041101955	4.74899872	-0.922802382
0.188743471	4.067354009	-0.909169781
0.036610686	3.892508918	-0.907216162
-0.102396619	3.695609064	-0.90000775
-0.230081895	3.532928003	-0.899939485
0.033183827	3.256223384	-0.890664924
-0.08611399	3.137619331	-0.891683053
-0.196790313	3.013622013	-0.891939965
-0.311241206	11.86727095	-1.0868542
-0.145844072	5.740535537	-0.953426588
0.244786431	5.065438457	-0.935982852
0.055579431	4.740997704	-0.921276444
0.201028119	4.062857007	-0.908298066
0.048443236	3.883614132	-0.905173394
-0.091129963	3.698819831	-0.900717344
-0.220082172	3.547159754	-0.903388507
0.171332145	3.380212522	-0.891520315
0.043058527	3.247425935	-0.888290514
-0.1868886	3.003682392	-0.888824252
-0.12831979	5.744901114	-0.954081705
0.260275346	5.063681438	-0.935801356
0.070196934	4.745712459	-0.922230118
-0.251974257	4.250529012	-0.914077909
0.214208945	4.075865597	-0.911348987
0.060282098	3.878578333	-0.904038522
-0.208000573	3.527500716	-0.898215003
0.181597856	3.377739727	-0.891010875
-0.239959138	11.94562078	-1.093874316
0.274846391	5.045184054	-0.932534423
0.084826365	4.749401016	-0.922993118
-0.239261808	4.257139217	-0.915337295
0.227037789	4.08103636	-0.912656536
-0.068450685	3.70028065	-0.900953855
0.192014635	3.378132179	-0.891265624
0.063151902	3.255780073	-0.890664924
-0.16872324	3.009560228	-0.890240515
0.291114576	5.058062032	-0.935075371
0.099828281	4.769728284	-0.926998669
-0.22625183	4.258829365	-0.915547162
0.238012736	4.054014363	-0.90677266
0.084185019	3.883003849	-0.905173395
-0.057038101	3.696587353	-0.90000775
0.202146342	3.373666071	-0.890246742
0.073530167	3.272928797	-0.895413744
0.306750166	5.059108207	-0.935438363
0.114461133	4.769399399	-0.926998668
-0.213233729	4.260479883	-0.915757088
0.096169799	3.885647823	-0.905854316
-0.04575691	3.701602713	-0.901190426
-0.176103225	3.540881587	-0.901171275
0.212678047	3.375925205	-0.891010874
0.083398664	3.265938047	-0.893566955
-0.150827418	3.022033121	-0.893639413
-0.128400746	11.79994863	-1.080381016
0.321144335	5.040478128	-0.932171432
0.12864135	4.752343974	-0.923756057
-0.200299397	4.264043897	-0.916386751
0.107927841	3.879493618	-0.904492471
-0.034535773	3.716299238	-0.904738392
-0.165600492	3.549150168	-0.90314216
0.093804167	3.279165363	-0.897260477
-0.092307335	11.81422848	-1.081657391
0.336213556	5.033582013	-0.931082455
0.143546032	4.762720469	-0.925854202
-0.187345193	4.267568758	-0.917016415
0.274190006	4.035098992	-0.903067994
0.119889597	3.881090822	-0.904946418
-0.023158358	3.720274259	-0.905684498
-0.154500064	3.544800144	-0.90191037
0.234589299	3.391921457	-0.895595841
0.10392514	3.280790207	-0.897788097
-0.018613393	3.121430459	-0.88676418
-0.132281728	3.022901869	-0.893639415
-0.05611334	11.8254103	-1.082660298
0.350832198	5.020754475	-0.928904441
0.158157174	4.762257457	-0.925854201
-0.173932525	4.260307989	-0.915337292
0.131399377	3.869024678	-0.902222724
-0.011744608	3.720327713	-0.905684498
-0.143074819	3.531700094	-0.898461349
0.113822484	3.275636027	-0.896468987
-0.122227214	3.004128292	-0.887974528
-0.019861621	11.84245575	-1.084210139
0.367092717	5.031423997	-0.931082454
0.172339714	4.749977898	-0.923565323
-0.16030796	4.246166407	-0.912188917
-3.29367E-4	3.704800217	-0.901900018
-0.132311555	3.534059519	-0.8989541
0.253363458	3.363418275	-0.888463669
0.122814294	3.247318935	-0.888818136
-0.11347873	3.01694796	-0.891656724
0.016472	11.84345705	-1.084301334
0.012683976	5.736455077	-0.952443828
0.383049146	5.037138181	-0.932352928
0.186718613	4.74452231	-0.922611647
0.011031013	3.702840585	-0.901426937
-0.122300791	3.558664049	-0.905112989
0.266704936	3.401187369	-0.898652487
0.132894573	3.249818091	-0.889609624
-0.10395747	3.009614027	-0.889390734
0.052793814	11.84036276	-1.084027867
0.03026749	5.733429338	-0.951952446
0.397259859	5.020254052	-0.929448931
0.201356951	4.745888785	-0.922993118
0.16704537	3.868624457	-0.902449699
0.02244987	3.71250547	-0.903792287
-0.111261126	3.555147522	-0.904127545
0.142694781	3.245540605	-0.888554325
-0.094783947	3.011836072	-0.889957219
0.089089307	11.83616171	-1.083663205
0.047865494	5.734295983	-0.952116239
0.412498743	5.017051288	-0.929085938
0.217120921	4.771725544	-0.928143079
0.179543346	3.881714107	-0.905627344
0.033804145	3.708532753	-0.902846124
-0.099970748	3.541909176	-0.900678582
0.285612969	3.37636114	-0.892539197
0.15247	3.241233486	-0.887499025
0.029494556	3.145396021	-0.893596002
-0.085570545	3.013071227	-0.890240516
0.125475578	11.84280343	-1.084301334
0.428056088	5.017721827	-0.92944893
0.230949667	4.754368917	-0.924900527
0.348836924	4.034230198	-0.904157569
0.191739323	3.886981188	-0.90698919
0.045228954	3.712297852	-0.903792288
-0.088738276	3.527666071	-0.896983214
-0.076496165	3.020030734	-0.892223206
-0.11980313	5.360989444	-0.945233573
0.443188452	5.013446562	-0.928904443
0.245636041	4.755598402	-0.925281995
0.363040371	4.053554302	-0.908733951
0.20335771	3.880538998	-0.905627341
0.056440097	3.70048343	-0.900953856
-0.077808132	3.523076949	-0.895751424
0.306324534	3.374545122	-0.892539197
0.048614729	3.133613902	-0.890316733
-0.067102421	3.014498461	-0.890523758
0.197639485	11.8119398	-1.081566196
-0.103450195	5.366254786	-0.946101536
0.458567403	5.012063268	-0.928904443
0.260385787	4.757762919	-0.9258542
0.376915461	4.067970739	-0.912220706
0.21504628	3.876007436	-0.904719445
0.067792758	3.700292809	-0.900953855
-0.066980694	3.522330118	-0.895505078
0.318031692	3.388031172	-0.896360032
-0.058000967	3.022361181	-0.892789691
0.23433052	11.83417736	-1.083663205
0.118250863	5.734263154	-0.952280033
0.47394204	5.010632719	-0.928904443
0.275151135	4.759881613	-0.926426463
0.387347555	4.045421747	-0.907426408
0.227107483	3.878245952	-0.905400366
0.078874658	3.687439241	-0.897878912
-0.056220382	3.525426056	-0.896244173
0.327211262	3.374526975	-0.893048637
0.0676539	3.124601201	-0.887857267
-0.04871276	3.021565894	-0.892506448
0.268586912	11.7438017	-1.075457792
0.488929766	5.005240082	-0.928178457
0.289752949	4.759015258	-0.926426464
0.399180877	4.038386595	-0.906118858
0.239663785	3.888223953	-0.907897089
-0.045404261	3.525581991	-0.896244174
0.337370062	3.37158298	-0.892539198
0.076954443	3.112839307	-0.884578057
-0.039354875	3.014988402	-0.890523759
0.305157411	11.76382764	-1.077372294
0.504381945	5.004694923	-0.928359953
0.304226727	4.75614471	-0.926044936
0.411271647	4.034230048	-0.905465113
0.250648098	3.872892333	-0.904492471
-0.034616235	3.528612238	-0.896983214
0.345926138	3.353217524	-0.887954229
0.211726361	3.232102906	-0.885916105
0.086584306	3.115473292	-0.885397861
-0.029970781	3.001668833	-0.88655832
0.34101588	11.75487283	-1.076642971
0.170463716	5.714196906	-0.949168015
0.520343409	5.008992949	-0.929448932
0.318291586	4.747353229	-0.924519055
0.2630558	3.879878542	-0.906308268
-0.023934192	3.550023304	-0.902403064
0.222169345	3.239136624	-0.888026704
-0.020768283	3.0027058	-0.886841563
0.187896494	5.710689219	-0.948676635
0.536545221	5.015195414	-0.930900959
0.330863263	4.717956611	-0.918987566
-0.016922663	4.243291312	-0.910929531
0.275026721	3.880024463	-0.90653524
-0.012975109	3.531665612	-0.89772231
0.205593084	5.715014976	-0.949495601
0.345909613	4.72475141	-0.920513503
0.285923425	3.865564803	-0.903357596
-0.002141812	3.53459649	-0.89846135
0.22343346	5.722243677	-0.950805893
0.359880559	4.71681666	-0.919178302
0.299502322	3.887003292	-0.908578012
0.008704573	3.535555585	-0.898707696
0.251597856	3.232146154	-0.886707592
0.125040569	3.119943133	-0.887037465
0.006901671	3.017155432	-0.891090241
0.375670444	4.732325561	-0.922420911
0.022137366	4.244244861	-0.911139456
0.158790235	3.702368453	-0.902136531
0.019567542	3.538419583	-0.899446792
0.399372722	3.364801772	-0.892539197
0.261434954	3.230397672	-0.886443725
0.134363006	3.11377863	-0.885397861
0.016122187	3.010406773	-0.889107493
0.044610233	5.351308905	-0.943324019
0.390429309	4.734085767	-0.922993117
0.03517462	4.246112332	-0.911559251
0.485809464	4.028883215	-0.906118858
0.169077517	3.678569328	-0.896459725
0.030439835	3.540281206	-0.899939485
0.144181828	3.119117272	-0.887037467
0.025341753	3.008425217	-0.888541012
0.275899885	5.716003106	-0.950150775
0.612813244	5.001494435	-0.929993418
0.404030916	4.722107291	-0.920894975
0.048234639	4.24891769	-0.912188917
0.498527033	4.030279963	-0.906772663
0.332417029	3.851091999	-0.900860936
0.181028666	3.691619642	-0.89977118
0.041097611	3.52272715	-0.895505078
0.419771509	3.360368941	-0.892029757
0.153939931	3.122503194	-0.888130554
0.034604413	3.01121005	-0.889390733
0.292878621	5.704292633	-0.948349047
0.077501415	5.354873108	-0.944018354
0.627664352	4.995687925	-0.929267434
0.41886297	4.724756699	-0.921657915
0.061326301	4.252659984	-0.913028448
0.511380547	4.032604097	-0.90764432
0.343796813	3.845203902	-0.899726064
0.192404102	3.692017259	-0.90000775
0.051919272	3.523553674	-0.895751425
0.290895724	3.224972735	-0.885652294
0.163015777	3.112410046	-0.88539786
0.043688924	3.000541322	-0.886275078
0.310002507	5.696472159	-0.947202493
0.093359562	5.322116404	-0.938289692
0.643239115	4.995689716	-0.929630427
0.432638862	4.715629133	-0.920131977
0.074338795	4.2504966	-0.91260871
0.203301803	3.683648404	-0.898115481
0.062763643	3.525315691	-0.896244174
0.300609219	3.222144162	-0.885124614
0.053114008	3.012858929	-0.889957218
0.327930594	5.703373038	-0.948512841
0.656891148	4.981018221	-0.927270976
0.447567575	4.719165835	-0.92108571
0.087298398	4.246338554	-0.91176912
0.532252973	4.000367388	-0.901106646
0.216071613	3.708226789	-0.904265311
0.07380134	3.535765141	-0.898954098
0.062158616	3.003093416	-0.887124804
0.344710984	5.690524236	-0.946547378
0.670196165	4.964361122	-0.924548533
0.462139358	4.718747599	-0.921276446
0.100279384	4.244095914	-0.911349326
0.545971946	4.009353221	-0.903503825
0.227268804	3.70463715	-0.903555718
0.084602168	3.533584303	-0.898461348
0.320374283	3.220239022	-0.885124614
0.071576775	3.011517494	-0.889673976
0.683943339	4.951566349	-0.922552018
0.477206171	4.723167302	-0.922420912
0.113247424	4.241813645	-0.910929531
0.558943183	4.012492489	-0.904593399
0.238071169	3.695195943	-0.901426938
0.331236664	3.228836434	-0.887762893
0.080789919	3.01032512	-0.889390735
0.697343264	4.936785971	-0.920192566
0.492202733	4.726562706	-0.923374586
0.126347874	4.244377899	-0.911559251
0.572764513	4.021387116	-0.906990577
0.249995739	3.703172821	-0.903555717
0.106573667	3.542686177	-0.900924928
0.477978571	3.327185937	-0.885407024
0.341343811	3.229723314	-0.888290513
0.090053755	3.011021661	-0.889673976
0.711361548	4.926837328	-0.918740599
0.507538706	4.732839109	-0.924900527
0.139144211	4.237130224	-0.91009
0.585802119	4.024439944	-0.908080152
0.259713717	3.679127398	-0.897878912
0.117152943	3.533624631	-0.898707695
0.491414227	3.347709545	-0.891265625
0.350520586	3.221948607	-0.886443725
0.099354237	3.012648195	-0.890240515
0.665745045	6.068444989	-0.954357236
0.521948752	4.730283958	-0.924709791
0.597572011	4.018762294	-0.907208492
0.425429432	3.829190871	-0.897910268
0.27021461	3.667654203	-0.895277049
0.12753729	3.520657487	-0.895505077
0.501969298	3.348098625	-0.891775064
0.36276354	3.241946967	-0.892247845
0.229885261	3.10915113	-0.885671148
0.108561892	3.011370951	-0.889957219
0.74319016	4.933076271	-0.920737056
0.533802921	4.705251127	-0.920131977
0.608433553	4.007260964	-0.905029286
0.28377079	3.696839896	-0.902609611
0.138756539	3.530902473	-0.898215003
0.509166209	3.326469429	-0.886425907
0.117800136	3.011023701	-0.889957219
0.545394691	4.679215454	-0.915363486
0.618931237	3.993802148	-0.902414194
0.294956538	3.69401497	-0.902136531
0.521160189	3.336356705	-0.889482551
0.379594049	3.21379651	-0.885124615
0.126835113	3.005856982	-0.888541009
0.190733114	4.226312708	-0.908200948
0.629504471	3.98128025	-0.900017071
0.459839219	3.818344853	-0.896321447
0.304521477	3.6717901	-0.896932807
0.388755582	3.206871458	-0.883541694
0.259288952	3.116489723	-0.888403841
0.13570938	2.997789345	-0.88627508
0.640317473	3.970658479	-0.898055779
0.472268042	3.822715453	-0.897683294
0.318116696	3.697943873	-0.903555718
0.542397376	3.337868625	-0.890756182
0.399782487	3.215235633	-0.886179914
0.269593261	3.124305032	-0.89086325
0.145415252	3.00789604	-0.889390735
0.217713213	4.245568283	-0.912608711
0.488766362	3.85892941	-0.906535239
0.329115356	3.693079325	-0.902609612
0.181826007	3.52409436	-0.896983213
0.278320848	3.113882196	-0.888130557
0.665475358	3.971467963	-0.899145356
0.499725736	3.850651295	-0.904946419
0.339284205	3.679474526	-0.899534669
0.192478191	3.520616848	-0.896244175
0.563511759	3.338291833	-0.891775064
0.287252759	3.106308623	-0.886217663
0.163398934	2.99832857	-0.886841563
0.535962621	5.669760119	-0.945564616
0.509099268	3.830757121	-0.900633961
0.351216373	3.685187051	-0.901190426
0.203837151	3.529685334	-0.898707695
0.575225798	3.345124552	-0.89406752
0.297055977	3.108285306	-0.887037465
0.1730379	3.005472679	-0.889107492
0.811835355	6.030696092	-0.951268226
0.552492026	5.659252561	-0.944090474
0.256956315	4.246312616	-0.913238376
0.688326615	3.958655834	-0.897184063
0.519143056	3.816632133	-0.897683294
0.361283762	3.671521802	-0.898115482
0.213723597	3.513565071	-0.894766038
0.3053628	3.094914667	-0.883484968
0.182315813	3.005884962	-0.889390734
0.830063863	6.026219384	-0.950959353
0.570543811	5.664401906	-0.94523703
0.268679547	4.225013464	-0.908830671
0.701319067	3.961330785	-0.898273697
0.370976281	3.654929424	-0.894330944
0.589290684	3.305356078	-0.884388145
0.31544076	3.099705245	-0.885124574
0.190682887	2.991912179	-0.885425298
0.847996863	6.01973085	-0.950341492
0.587206112	5.655756308	-0.944090475
0.355374492	5.32586421	-0.94089364
0.281120089	4.216364748	-0.90715149
0.382693085	3.658605897	-0.895513619
0.23612054	3.524758732	-0.897968656
0.603917413	3.328270828	-0.891010874
0.867306032	6.022968316	-0.951268224
0.899801842	4.938916375	-0.926544991
0.295483181	4.235964767	-0.911559252
0.247204229	3.527885091	-0.8989541
0.614125539	3.326402592	-0.891010876
0.470548621	3.21831668	-0.889609624
0.209104196	2.991642484	-0.885708539
0.6228692	5.66087203	-0.945564617
0.914591572	4.934198806	-0.926181999
0.404278604	3.648463249	-0.893621352
0.258026454	3.527109903	-0.898954099
0.620936744	3.306444977	-0.886171214
0.479992637	3.213996099	-0.888818136
0.217722997	2.983334767	-0.883442606
0.927356667	4.918806694	-0.923822548
0.320802808	4.225297967	-0.909670204
0.416129868	3.652998068	-0.895040539
0.26803583	3.515671617	-0.896244174
0.629445323	3.295975854	-0.883878702
0.353236885	3.093689523	-0.884578059
0.939480495	4.900485782	-0.920918552
0.332763209	4.211622697	-0.906941621
0.429480851	3.670039781	-0.899534668
0.278437272	3.51000204	-0.895012385
0.236478343	2.987679182	-0.885142057
0.956203618	4.906267491	-0.922552017
0.34696271	4.226173271	-0.910299867
0.440043003	3.662916749	-0.898115481
0.288965689	3.506233546	-0.894273288
0.508796871	3.204679038	-0.887499026
0.245328867	2.983116302	-0.884009091
0.97106025	4.902346449	-0.922370523
0.358598966	4.209501923	-0.906941623
0.448545024	3.639369946	-0.892675187
0.299143326	3.498570895	-0.892548806
0.517238776	3.194533317	-0.885124614
0.255213627	2.990949678	-0.88655832
0.985513803	4.896451712	-0.921826033
0.560251814	4.437380052	-0.913783814
0.371941731	4.213251549	-0.907991081
0.800066812	3.951535375	-0.900234987
0.310645167	3.506325276	-0.894766038
0.263712785	2.982510187	-0.884292332
1.000728192	4.894368739	-0.922007529
0.574365691	4.439527194	-0.914584542
0.384332282	4.206248442	-0.906731753
0.809237043	3.934722731	-0.896966149
0.473736959	3.658711708	-0.898115482
0.321046977	3.50149538	-0.893780597
0.272512169	2.977866716	-0.883159365
1.014939467	4.887423866	-0.921281543
0.586953744	4.429973647	-0.912983143
0.397143085	4.204076116	-0.906521826
0.824896531	3.949417974	-0.900888732
0.650736363	3.815183061	-0.901995751
0.485342663	3.660130698	-0.898825076
0.33169645	3.499529062	-0.89353425
0.41176884	3.099059565	-0.888130555
1.029903178	5.977255007	-0.948179214
1.025668094	4.864080491	-0.917470125
0.6004103	4.427181115	-0.91278299
0.411368286	4.216461572	-0.909460335
0.834579624	3.935411831	-0.898273696
0.702700993	3.293993529	-0.887190096
0.419200723	3.082531048	-0.883758197
1.045674965	5.959470101	-0.945862441
1.038939259	4.853217781	-0.916018154
0.613182006	4.419495697	-0.911581958
0.42322511	4.204478685	-0.907151491
0.84336303	3.917567067	-0.894786943
0.671928342	3.798651236	-0.89904514
0.506856242	3.650347062	-0.897169319
0.713212786	3.293712485	-0.887699538
0.430113821	3.091710883	-0.886764179
1.062563623	5.948453365	-0.944626779
1.054241449	4.851929886	-0.916381149
0.624673595	4.403043091	-0.908579375
0.684614756	3.802322946	-0.900406988
0.517233482	3.643003002	-0.895750132
0.362687274	3.484760286	-0.890577979
0.723729516	3.293397967	-0.88820898
0.439326107	3.088472125	-0.886217664
1.080101383	5.941277019	-0.944008976
0.810136945	5.613199198	-0.941633631
1.070392462	4.854434206	-0.917470124
0.696803416	3.803078482	-0.901087911
0.527012304	3.631783377	-0.893384839
0.733198748	3.288330478	-0.887444789
0.44838415	3.084253857	-0.88539786
1.09760506	5.934049116	-0.943391173
0.826346803	5.603855786	-0.940487076
1.087856986	4.862643805	-0.91964808
0.650816942	4.393311981	-0.90737834
0.461369831	4.195545845	-0.90610203
0.708467861	3.800922849	-0.901087911
0.539006888	3.635916165	-0.894804026
0.744563823	3.291724605	-0.88897311
1.115439918	5.928711814	-0.943082301
0.843388408	5.600318767	-0.940323283
1.102770256	4.859283354	-0.919648079
0.868662382	4.601144746	-0.909831997
0.892459546	3.911680272	-0.895876575
0.719037207	3.792990254	-0.899726064
0.550304598	3.635206121	-0.895040538
0.753794282	3.285654845	-0.88795423
0.604154376	3.173350351	-0.883541693
1.133623719	5.925261774	-0.943082301
0.860715846	5.598679984	-0.940487077
1.119437759	4.863543637	-0.921100047
0.677313005	4.386331019	-0.906777823
0.905556246	3.913678181	-0.89696615
0.729011652	3.782159603	-0.897683293
0.561454634	3.633500606	-0.895040538
0.757954597	3.257896525	-0.881076807
0.613337324	3.168640871	-0.882750261
1.151608227	5.920786472	-0.942927808
1.13390664	4.858171255	-0.920737056
0.898194267	4.602472364	-0.9111672
0.690766897	4.384232331	-0.906777822
0.916667285	3.907080538	-0.896094488
0.739300894	3.773215238	-0.896094472
0.573507353	3.637519684	-0.896459725
0.415637632	3.474937579	-0.889592535
0.62417295	3.172422814	-0.884333182
0.354166734	2.965399124	-0.882026401
1.168809438	5.912379111	-0.942155569
1.146767823	4.846056794	-0.919103589
0.914220021	4.609323984	-0.913074608
0.705147024	4.387896633	-0.907978856
0.512108122	4.183745355	-0.904842703
0.928875607	3.905199677	-0.896312405
0.586052798	3.644376822	-0.898588564
0.427241077	3.481341746	-0.891563363
0.780404309	3.263529893	-0.883878702
0.635037512	3.176168183	-0.885916104
0.365245898	2.980481328	-0.886841563
1.18752655	5.911671653	-0.942618936
1.162547451	4.846340973	-0.919829575
0.927969086	4.604572655	-0.912693137
0.720981903	4.40021594	-0.910981442
0.596444825	3.637767526	-0.897405888
0.440218785	3.498284895	-0.896244174
0.642474772	3.162861762	-0.882750262
0.502896806	3.062188955	-0.881572076
0.373909866	2.975540337	-0.885708538
1.20605284	5.90993655	-0.942927808
1.178572016	4.847529156	-0.920737055
0.94248512	4.603627367	-0.913074606
0.734639587	4.398949615	-0.911181594
0.950734978	3.890893863	-0.894351113
0.607442361	3.634962121	-0.897169318
0.452064892	3.505568918	-0.898461349
0.799260894	3.253984409	-0.882605128
0.652175255	3.160875835	-0.882750262
0.38315944	2.975330439	-0.885991837
1.226183845	5.915882752	-0.944472342
1.191321162	4.835297151	-0.91910359
0.957403708	4.604558837	-0.913837548
0.746817098	4.388948044	-0.909580197
0.961963889	3.885116494	-0.89369731
0.462437	3.501282893	-0.897722309
0.815779555	3.277791937	-0.889737301
0.660880555	3.154139561	-0.88143115
0.392662061	2.976993468	-0.886841563
1.203291844	4.820170186	-0.916925636
0.972742545	4.607362298	-0.914982014
0.759107494	4.379878624	-0.908179011
0.630730762	3.636910616	-0.898588564
0.472527358	3.495045575	-0.896490521
0.824176876	3.268709994	-0.887954228
0.401408505	2.972923397	-0.885991837
1.215180966	4.805015481	-0.914747625
0.986873072	4.604356376	-0.914982014
0.770838438	4.367880402	-0.906177306
0.642561544	3.63878561	-0.899534668
0.481521413	3.481098918	-0.893287903
0.830851007	3.253049021	-0.884388143
1.280370762	5.903381249	-0.944317906
1.224060151	4.778401342	-0.910391715
1.000368382	4.598429275	-0.914409809
0.785794356	4.374174061	-0.907978858
0.652346995	3.629146815	-0.8976424
0.492470508	3.481524535	-0.893780596
0.841553852	3.253293322	-0.885152333
0.419105849	2.966605936	-0.884858814
1.295715241	5.886881509	-0.942310005
1.015106385	4.598214606	-0.914982016
0.799739025	4.374634026	-0.908579374
1.008090838	3.867352852	-0.892389822
0.662079342	3.61948219	-0.895750131
0.50481359	3.491507799	-0.896736868
0.428068231	2.964357114	-0.884575574
1.312262487	5.876129018	-0.941228837
1.258354251	4.789822863	-0.914021638
1.031139657	4.603699496	-0.916698687
0.813514726	4.374086363	-0.90897968
0.668736634	3.593553284	-0.889836814
0.514531583	3.483231224	-0.895012386
1.330283943	5.872075543	-0.941228837
1.268998665	4.770734384	-0.9111177
0.826019908	4.366756576	-0.907978858
0.522035102	3.460552661	-0.889592534
1.345859287	5.857374226	-0.939529923
1.283629079	4.766818774	-0.911117701
0.837377422	4.353618364	-0.905776944
0.640351194	4.167034088	-0.905052571
1.04364226	3.857910915	-0.892389823
0.863340432	3.733786656	-0.893143804
0.532501954	3.457976996	-0.889346189
0.881667054	3.243654315	-0.885407025
0.454312704	2.95365641	-0.882592884
1.300575014	4.771396976	-0.912751165
0.652223696	4.159254372	-0.903793244
0.875013741	3.732068444	-0.893370777
0.542957927	3.455369545	-0.889099842
0.894692358	3.252122785	-0.888463672
0.74383187	3.161383209	-0.888290515
0.465454166	2.965513021	-0.886558322
1.31625341	4.771176673	-0.913477151
0.862356365	4.339749503	-0.903975393
0.665135444	4.158199422	-0.904003114
1.06859745	3.856137081	-0.893479396
0.886009062	3.727471473	-0.892916829
0.719416147	3.618430277	-0.898115481
0.553863055	3.455601578	-0.889592536
0.472882289	2.953654043	-0.883442607
1.328769547	4.759538414	-0.912025181
0.879156699	4.354370147	-0.907578492
0.679778206	4.167718747	-0.906521825
1.079105364	3.848142157	-0.892389823
0.726088921	3.594301251	-0.892675188
0.56539997	3.459624866	-0.89107067
0.90833681	3.224232878	-0.882350379
0.754602072	3.121132417	-0.878265253
0.483486928	2.961654523	-0.886275078
1.343632695	4.756385854	-0.912206678
0.891724242	4.347813425	-0.906777823
0.694485624	4.177187458	-0.909040539
1.090106939	3.841996542	-0.89173602
0.909325736	3.723856964	-0.893370777
0.736722041	3.590153286	-0.892202165
0.576807583	3.462654106	-0.89230246
0.491941191	2.956373087	-0.885142055
1.438852249	5.849472666	-0.941692203
1.361191306	4.762642151	-0.914203136
0.904459556	4.342179784	-0.906177307
0.70795099	4.178893192	-0.909880072
1.100811818	3.834881651	-0.89086436
0.74614713	3.5802665	-0.890309895
0.586779369	3.457046076	-0.891317017
0.923548497	3.202803172	-0.878020162
1.453685308	5.83256792	-0.93968436
1.371972532	4.745217666	-0.911662188
0.917168686	4.336508873	-0.905576791
0.721765928	4.182482363	-0.911139456
1.112843999	3.832423683	-0.891082275
0.756323102	3.574158321	-0.889363733
0.598703613	3.462869659	-0.893287902
0.93580717	3.208309664	-0.880312617
0.785178622	3.121538337	-0.88037585
0.509582213	2.95046386	-0.884292332
1.467944357	5.813711402	-0.937367586
1.385420141	4.737211094	-0.910936205
0.931085632	4.336548487	-0.906177308
0.733748138	4.175433704	-0.910089999
0.609492743	3.461971185	-0.89353425
0.519130066	2.95172029	-0.885142056
1.396599946	4.721622237	-0.90875825
0.944802835	4.335586188	-0.906577672
0.744488605	4.161613409	-0.907571285
0.953013791	3.704872286	-0.891554983
0.782379108	3.588436679	-0.894094432
0.62147885	3.467716877	-0.895505079
0.802871051	3.111058029	-0.878792873
0.526324186	2.939729372	-0.882026401
0.955561199	4.321187017	-0.904175603
0.753750169	4.140071618	-0.903373449
0.792125241	3.580327423	-0.892675188
1.519134021	5.791353488	-0.935977487
0.967741496	4.313455378	-0.903174724
0.805659368	3.589256899	-0.89551362
0.640092323	3.449544449	-0.891809767
0.682127814	3.035198324	-0.883758198
1.535119183	5.779981563	-0.93489632
0.985313106	3.68935768	-0.889966162
0.815157306	3.580136566	-0.893857863
1.553101218	5.776198897	-0.935050814
0.996881432	3.68725741	-0.890193135
0.82263942	3.562471457	-0.890073326
0.83997819	3.097247665	-0.877737631
0.697055069	3.01502319	-0.879112612
1.571852989	5.775219951	-0.935668616
1.590613235	5.774180361	-0.936286418
0.844258428	3.556411366	-0.889836814
0.861548506	3.101329073	-0.880375852
1.608055398	5.768321769	-0.936131983
1.497371294	4.689605779	-0.908576753
0.695227314	3.450721274	-0.89476604
1.967007866	6.110443659	-0.942073178
1.625744815	5.763360975	-0.936131982
1.515073678	4.695284462	-0.910573211
1.038866361	3.663503035	-0.887469442
0.701535386	3.427683192	-0.88934619
1.642605396	5.755496154	-0.935668616
1.530690809	4.694354072	-0.911299196
1.050906683	3.663106931	-0.888150364
0.875090104	3.540944362	-0.887944545
0.71540124	3.441645917	-0.893534249
0.60650395	2.920321902	-0.880893378
1.657788723	5.74188631	-0.934278517
1.543854801	4.685900035	-0.910573213
1.305770755	4.512004069	-0.912693138
1.062411423	3.660800984	-0.88837734
0.723554865	3.428055468	-0.890577978
0.754304831	3.009146446	-0.881298791
0.616450022	2.923139343	-0.882309641
1.675950765	5.738670472	-0.934587449
1.376163782	5.44286536	-0.932133783
1.561019053	4.689538955	-0.912206678
1.316573676	4.497613486	-0.910594994
1.261057238	3.773895781	-0.888467182
1.074186197	3.659393289	-0.888831289
0.76708453	3.02080326	-0.885397861
0.624812859	2.918420981	-0.881459859
2.039326673	6.078341388	-0.940911544
1.692149462	5.72876404	-0.93381521
1.574772094	4.682863298	-0.911843684
1.326743271	4.481316884	-0.908115323
0.906192366	3.5270939	-0.886525358
0.743751514	3.419763007	-0.889592534
0.63417084	2.918364789	-0.882026401
2.05447159	6.061748463	-0.939314317
1.711131017	5.728278865	-0.934587448
1.409039277	5.432408993	-0.931806196
1.587866235	4.674285421	-0.9111177
1.337669996	4.467821124	-0.906207971
1.096899583	3.653665996	-0.889058263
0.917253748	3.525237684	-0.886761872
0.75006225	3.398537164	-0.884665436
0.923776836	3.068258731	-0.876418521
0.642295173	2.912659161	-0.880893376
2.074982085	6.061033632	-0.940185559
1.729554119	5.725839517	-0.935050814
1.59326276	4.64334758	-0.906035749
1.3508019	4.461817323	-0.905826444
1.295737897	3.762129521	-0.888467183
1.104426077	3.638168855	-0.886107595
0.93524362	3.549654139	-0.893621351
0.759849959	3.393382784	-0.88392634
2.089040479	6.041547996	-0.938152742
1.748266945	5.724286037	-0.935668616
1.60556875	4.632862599	-0.904946772
0.925199497	4.079097288	-0.897916285
1.307273856	3.75813653	-0.888467183
0.937865198	3.515787877	-0.885815765
0.659305752	2.904922325	-0.879760412
2.107239701	6.034176298	-0.938007545
1.616850829	4.619561299	-0.903313306
1.31944446	3.755949669	-0.888903069
0.78239763	3.396212033	-0.885897167
2.125413393	6.026749654	-0.937862289
0.793915737	3.398514622	-0.887128958
0.817987952	2.989471033	-0.880478988
0.679297585	2.910161694	-0.882592884
2.142233578	6.015540622	-0.937136304
1.150754745	3.629912009	-0.887469441
0.802328216	3.387575106	-0.884911783
1.126201255	3.132147953	-0.876746589
2.161683268	6.011732943	-0.937571895
0.694456469	2.894747608	-0.879193927
2.176740334	5.995772476	-0.936119866
1.833139878	5.688332274	-0.934278518
0.821953158	3.377879682	-0.883679992
1.142070875	3.116099015	-0.874199382
2.192401071	5.981634364	-0.934958289
1.848747184	5.67704452	-0.933351842
1.526483747	5.342126812	-0.922470082
2.210742116	5.974879955	-0.934958289
1.866155461	5.671346147	-0.933351843
1.542044126	5.334575609	-0.921978702
1.697505166	4.577953211	-0.901135352
2.226639143	5.961581788	-0.933941853
1.881675901	5.659969013	-0.932425111
1.558403116	5.329819534	-0.921978702
1.717402341	4.58838084	-0.904220788
0.853720928	3.372990188	-0.884419031
2.244569415	5.953796692	-0.933796656
1.898402461	5.652296321	-0.932116239
1.574747476	5.325013298	-0.921978702
1.738422231	4.601488644	-0.907850768
2.263176805	5.947806766	-0.933941852
1.909703294	5.628668551	-0.929181605
1.589380985	5.31448635	-0.920995999
1.754983715	4.602565711	-0.909121242
1.41670724	3.702594784	-0.885198402
1.048340124	3.495601929	-0.888417627
0.878785293	3.384573789	-0.888853496
2.279640357	5.936217216	-0.933215808
1.9298455	5.631195187	-0.930571705
1.611674799	5.329414306	-0.924435603
1.772274538	4.605419818	-0.910754707
1.431223984	3.706424952	-0.887159693
1.058495669	3.490509664	-0.887944546
0.88645404	3.371551343	-0.886143572
2.288903457	5.906131978	-0.929585766
1.945496825	5.620579605	-0.929799466
1.629748298	5.330105236	-0.925418307
1.442942783	3.702925989	-0.887377608
1.06578165	3.476098454	-0.885106172
2.304129435	5.891710236	-0.928424131
1.962731465	5.614584463	-0.929799466
1.638226926	5.299632853	-0.920995999
1.45179641	3.69212388	-0.885852148
1.075002802	3.468172108	-0.883923497
0.902585382	3.349204242	-0.881709163
2.318199115	5.874490283	-0.926826907
1.981262974	5.612263235	-0.930417269
1.654184082	5.293640236	-0.920832205
1.462396958	3.685837986	-0.885416317
1.076770096	3.029232574	-0.87932055
2.342066878	5.882057627	-0.929150175
1.997808436	5.604297097	-0.930108338
1.669822654	5.286659033	-0.920504618
1.389320334	5.037359654	-0.921103645
1.474060765	3.682240111	-0.885634232
4.7875597	17.20412066	-1.152623889
2.361945939	5.879435304	-0.929876161
2.014992852	5.598141392	-0.930108338
1.687234045	5.285270075	-0.921159792
1.407415663	5.042559136	-0.922839571
1.48242692	3.67046099	-0.883890856
1.091721874	3.012593318	-0.87641852
4.847892265	17.2162474	-1.154427406
2.375141453	5.860240849	-0.927988541
1.707984437	5.294151609	-0.923616636
1.418061617	5.021158167	-0.919714857
1.132340843	4.010263702	-0.894558041
1.494785552	3.668607082	-0.8845446
1.105930442	3.022817425	-0.880375851
0.80984777	2.866601589	-0.879760412
4.904515896	17.21472842	-1.155329105
2.392360329	5.851094647	-0.927698147
1.425072068	4.987429434	-0.914333333
1.507146732	3.666712011	-0.885198403
1.264304543	3.065401479	-0.873435194
1.114864944	3.018505476	-0.880112041
4.961452719	17.21398517	-1.156295297
2.407659038	5.837324894	-0.926681709
1.733337822	5.262021933	-0.919849445
1.438452255	4.976411407	-0.913118173
1.522874549	3.672889398	-0.887813438
5.020106546	17.2188013	-1.157647964
2.427456758	5.834478388	-0.927407753
1.754457509	5.271655596	-0.922470083
1.531123107	3.660996884	-0.886070062
1.128948566	2.999872067	-0.876682331
5.076296472	17.21480492	-1.158420799
2.444962384	5.82609137	-0.927262556
2.096440799	5.555482096	-0.928254932
1.539313065	3.649088238	-0.884326685
1.34003656	3.536273246	-0.88134113
2.45202653	5.793050774	-0.923196864
2.110661705	5.541637616	-0.927019327
1.787722576	5.263593152	-0.922961462
2.476391585	5.800969872	-0.925665329
2.128716646	5.537902907	-0.927482635
1.807704071	5.269281134	-0.924926984
2.493785834	5.792436509	-0.925520133
1.818693824	5.248796365	-0.922306288
1.187903901	3.419829412	-0.881321636
2.512333146	5.786573288	-0.925810526
1.830226558	5.230156363	-0.920013238
1.234169611	3.993410475	-0.897286622
1.025821565	3.315565028	-0.882201858
1.329839674	3.037544909	-0.873435194
2.529280751	5.777025873	-0.925520133
1.24262508	3.977473146	-0.89455804
1.601788377	3.640233443	-0.888031353
1.344620028	3.045835723	-0.87700128
1.185400312	2.982168907	-0.877737629
2.547391929	5.770144302	-0.925665331
1.25423309	3.971777215	-0.894138244
1.615323852	3.640654577	-0.889338899
1.404538997	3.510104315	-0.881114157
1.353564925	3.040812586	-0.876746587
1.191671535	2.971355999	-0.875627029
2.565484827	5.763205361	-0.925810526
2.210464488	5.497264774	-0.926247029
1.571400177	4.922605326	-0.910861423
1.265817913	3.96604779	-0.893718449
1.61612333	3.612518953	-0.883672942
1.417853314	3.512100364	-0.882702978
1.052164156	3.29305818	-0.878752834
2.581128544	5.750794558	-0.925084484
2.225462389	5.485879851	-0.925474792
1.584378499	4.911200059	-0.90964626
1.277079264	3.959354085	-0.893088785
1.622784652	3.597757485	-0.881275763
1.427152223	3.504126069	-0.88179508
1.366217503	3.01923488	-0.872925752
2.593864605	5.732031651	-0.923342061
2.240785536	5.475368833	-0.92485699
1.911257919	5.204244899	-0.920504619
1.601880289	4.91380702	-0.91103505
1.288008333	3.951699433	-0.892249197
1.635026846	3.595427227	-0.881929565
1.437155704	3.497929503	-0.881341131
1.378684923	3.022067556	-0.874963517
2.608973984	5.718645879	-0.922470878
2.258327223	5.470295049	-0.925165862
1.92412909	5.190032091	-0.919030478
1.62649942	4.937865825	-0.916416514
