3.786172701	1.707049477	-0.848527873
3.534831008	1.756236346	-0.847332387
3.36036253	1.367023759	-0.845479163
3.026921693	1.09871333	-0.848217898
6.982541638	2.538418827	-0.813152324
6.371593596	2.583755124	-0.817789084
5.337464167	1.937312719	-0.833316576
4.270865757	2.105335713	-0.839339603
4.260639356	1.543097439	-0.836340693
3.759193339	1.681027089	-0.841321672
3.553356582	1.751868608	-0.850480765
3.551814683	1.281752639	-0.84313946
3.368153648	1.358164799	-0.846387062
3.204804209	1.432713986	-0.854593422
6.968785174	2.509239083	-0.810650002
6.38317608	2.56567663	-0.818261511
5.339658375	1.919589552	-0.832735788
4.00498283	1.604177362	-0.838304337
3.560471012	1.741818061	-0.85090056
3.553892089	1.270192894	-0.842703629
3.383156536	1.352162368	-0.849110754
3.182537635	1.411060403	-0.84749743
2.745735463	1.21653288	-0.853151867
2.607890388	1.275354837	-0.857383996
6.97270543	2.48651166	-0.810214828
6.397474973	2.548653665	-0.819088287
5.341794293	1.901871268	-0.832154942
4.966684098	1.975335164	-0.835583894
4.282074191	1.521205092	-0.838700203
4.011710092	1.59260714	-0.838685806
3.558761382	1.727470859	-0.849221436
3.566972616	1.26254011	-0.844882834
3.375518323	1.3371139	-0.846160087
3.207308725	1.410285093	-0.852937665
3.009343391	1.459607845	-0.850175508
3.057881462	1.078203793	-0.854076498
2.74769347	1.207329381	-0.852605351
2.611790753	1.26734795	-0.857383995
6.98030104	2.465108165	-0.810214828
6.408034861	2.530108672	-0.819442636
5.329874846	1.879222954	-0.829396139
4.961690651	1.955740752	-0.833730487
4.632801709	2.02438527	-0.839428117
4.291359007	1.509692474	-0.839607682
3.78797663	1.652232853	-0.844324255
3.543784283	1.706786739	-0.844393937
3.57911865	1.254496298	-0.846844127
3.378697966	1.326395849	-0.845933112
3.044741503	1.063079417	-0.849491529
2.746093607	1.196588388	-0.85096569
2.61825891	1.260577143	-0.858233775
6.996276001	2.446634588	-0.811193954
6.403745435	2.505733194	-0.81790722
5.337483674	1.863514636	-0.829686534
4.966747364	1.940149788	-0.833575993
4.63627505	2.008985811	-0.838936736
4.315040432	2.0616828	-0.842985142
4.286684292	1.493284638	-0.837792664
3.774143486	1.63243578	-0.840120638
3.550768209	1.696749562	-0.844813674
3.579262325	1.242229831	-0.845972466
2.616921748	1.250058266	-0.85653427
7.013143017	2.428411342	-0.812281977
6.422512868	2.490383084	-0.819324501
5.328213787	1.841958487	-0.827363264
4.969912333	1.923832872	-0.833112628
4.645135546	1.995920783	-0.839428116
3.550656375	1.683334946	-0.843554347
2.620744472	1.242023815	-0.856534269
7.04030723	2.413653963	-0.814566684
6.414365105	2.464612681	-0.817316658
5.350689697	1.831370174	-0.829976929
4.98593795	1.912468525	-0.834811597
4.652144808	1.982047113	-0.83959191
4.330283378	2.03642482	-0.843505968
4.031868574	1.543608361	-0.838876541
3.567305661	1.677843451	-0.846282928
3.578501677	1.217415491	-0.844011177
3.029659726	1.423805368	-0.850914603
3.049817559	1.033459609	-0.848217898
2.620203211	1.231937286	-0.855118063
7.041089845	2.389806621	-0.813805115
6.422824027	2.445275315	-0.817434793
5.344100846	1.81081808	-0.828089308
4.993629275	1.897864816	-0.835120529
4.661838515	1.969300754	-0.840247083
4.03658527	1.531231467	-0.838876541
3.578638746	1.669785135	-0.847752183
3.024351319	1.409998976	-0.84820468
2.916517193	1.101225705	-0.852674474
7.051215508	2.369143567	-0.81413151
6.450735879	2.433269103	-0.820033198
5.330870498	1.788121149	-0.82518525
5.002202148	1.883580126	-0.835583894
4.659669317	1.951559358	-0.838772943
4.043101891	1.519530864	-0.839258069
3.570435396	1.652637809	-0.844603806
28.9428291	12.08040339	-0.572626916
7.042414926	2.342166445	-0.812281977
6.467472455	2.416943242	-0.821214265
5.330697276	1.769887259	-0.82431401
4.998700426	1.864771456	-0.83403936
4.66199035	1.935741226	-0.838117827
4.342691858	1.438486519	-0.844326583
4.05694403	1.510545018	-0.841165477
3.599479524	1.652691299	-0.850270897
3.590481608	1.18473416	-0.844229091
3.059200126	1.005346138	-0.848217899
2.770319811	1.146942911	-0.851785548
2.626200928	1.205369104	-0.853418558
7.040125456	2.317441394	-0.811193955
6.465545029	2.393642226	-0.820033199
5.939218987	2.448371088	-0.826249125
4.994203897	1.845659531	-0.832340389
4.666082689	1.920678339	-0.83779024
3.806270764	1.563806567	-0.840721155
3.607202181	1.642856119	-0.850900559
3.602449139	1.176439896	-0.846190382
2.63250505	1.198498495	-0.854268338
7.054763609	2.29829506	-0.812064361
6.47938411	2.376188192	-0.820859916
5.939357529	2.427136823	-0.825228575
5.005409494	1.832366694	-0.833267122
4.664645959	1.903372343	-0.836479891
3.808328319	1.551013107	-0.840120638
3.599540896	1.163281252	-0.844664921
3.243221757	1.320466833	-0.852464641
3.049376647	1.376367818	-0.850421911
3.073595937	0.989222611	-0.850510412
2.64491034	1.194363469	-0.857100754
7.057050629	2.275115356	-0.811520349
6.477310543	2.35290817	-0.81967885
5.954130067	2.41188263	-0.826249125
4.985000191	1.807571472	-0.828942446
4.661318428	1.885353528	-0.834842014
3.825788278	1.544456727	-0.84292307
3.597515162	1.150448943	-0.843357374
3.238247503	1.306874362	-0.850099292
2.946678476	1.061261697	-0.856631804
7.078203141	2.257985714	-0.813152325
6.490104648	2.335042152	-0.820387489
4.988662936	1.791601318	-0.828633576
4.658840004	1.867740189	-0.833367874
4.05854169	1.454684431	-0.837732129
3.849611005	1.540355619	-0.847126628
3.243143857	1.297294276	-0.850335804
2.933567556	1.046383454	-0.851882985
2.639041827	1.172272166	-0.852852073
7.084149222	2.235960334	-0.813043546
6.490690178	2.312786614	-0.819560713
4.987619661	1.773970328	-0.827552406
4.656297071	1.850159791	-0.831893732
4.082412499	1.449122038	-0.841737681
3.847943302	1.5260097	-0.845725442
3.24981818	1.288412552	-0.851045396
3.087186278	0.96233105	-0.851783985
2.929488022	1.034808247	-0.849772443
2.787587209	1.104313541	-0.85178555
7.104260135	2.218364006	-0.814566683
6.487454702	2.289227872	-0.818261511
5.000493714	1.761286041	-0.828788011
4.682144885	1.843817888	-0.83549713
4.097026343	1.440171465	-0.843835826
3.858990078	1.516705894	-0.847126629
3.611372129	1.578325738	-0.84607306
3.086427931	0.95171536	-0.850765105
2.931738357	1.025497391	-0.849508573
7.10628357	2.195091109	-0.814022731
6.508508726	2.274227155	-0.820033198
4.9984107	1.743333408	-0.827552407
4.685022842	1.828368669	-0.835005809
3.84080111	1.495969707	-0.842122341
3.609917749	1.564517114	-0.844603806
3.070130398	1.329430951	-0.850421912
3.100432576	0.945627103	-0.853821749
2.934870931	1.016498126	-0.849508575
4.697050694	1.816477396	-0.836152305
4.349402517	1.323177998	-0.839063195
3.837146236	1.481004226	-0.840320791
3.619192041	1.555364874	-0.845653264
3.612870736	1.094564606	-0.842921544
3.253380521	1.255299596	-0.848916617
3.096458314	1.329565371	-0.8565808
3.094060892	0.933318006	-0.851274544
2.95531136	1.013434021	-0.854521204
7.126279422	2.15345917	-0.814784299
5.404051516	1.630042185	-0.828379701
4.706286057	1.80347047	-0.836807478
4.360974959	1.312094703	-0.840515164
3.854483501	1.474124852	-0.843123222
3.628444238	1.546170501	-0.846702724
3.249048354	1.242189609	-0.846787836
3.102306376	1.320818647	-0.857073494
3.088569801	0.921333317	-0.848982089
7.123328228	2.128739823	-0.813696336
5.416612195	1.615717691	-0.829541337
4.723786307	1.793575526	-0.838936736
3.630468852	1.533889745	-0.846073061
3.249209513	1.230839044	-0.845841672
3.097414942	1.307525456	-0.854609971
2.949588112	0.99128695	-0.851091554
2.684026591	1.13357193	-0.860499707
7.130779149	2.107157282	-0.813805115
5.426288394	1.600491658	-0.830267322
5.029732737	1.685316834	-0.829251378
4.720956479	1.77594868	-0.837462652
3.623434119	1.517833569	-0.843344478
3.629348152	1.063186841	-0.844447006
3.08621335	1.291655614	-0.850421912
3.094164738	0.902364861	-0.848982088
2.679530113	1.121998354	-0.857950534
7.140072485	2.086106805	-0.814131509
5.426423945	1.582451491	-0.829541336
5.05363489	1.676098414	-0.832340389
4.722685562	1.76007864	-0.836807479
3.867887587	1.438586615	-0.843123221
3.661653675	1.060463539	-0.851202596
3.441209392	1.136053882	-0.844571265
3.109855511	1.290352603	-0.855841704
7.152169064	2.065846606	-0.814784299
6.018800082	2.225697798	-0.825356128
5.433154541	1.566344213	-0.82983173
4.728988342	1.745922956	-0.836971271
3.666766498	1.049761944	-0.851638426
3.45763892	1.129725647	-0.847748908
3.098562272	1.274538052	-0.851653644
6.029325492	2.208586639	-0.825866404
5.450304417	1.553193239	-0.831719351
5.034694548	1.635595223	-0.827552407
4.734322542	1.731406432	-0.836971272
4.351264508	1.236712078	-0.834888724
3.877562229	1.415162591	-0.843323374
3.648370668	1.032395612	-0.846626212
3.462015311	1.119412077	-0.847975883
3.114124575	1.269782946	-0.854856318
3.106992858	0.875159582	-0.850255662
2.957858359	0.953832135	-0.850036252
2.675535327	1.091492888	-0.853418558
6.568976958	2.115946507	-0.820859916
6.035140586	2.189740041	-0.82573885
4.734974555	1.71519368	-0.836152304
4.424214337	1.789508812	-0.841249157
4.102509419	1.31601662	-0.837159924
3.654340634	1.021986238	-0.847280014
3.46821596	1.109675899	-0.848656806
3.115309833	1.259133344	-0.854117221
3.105005328	0.864326769	-0.848982089
2.674425823	1.081481707	-0.85200235
10.37471227	2.901082127	-0.781457135
5.046518846	1.605271017	-0.827861279
4.726286162	1.695661899	-0.833695459
4.431511837	1.776660027	-0.841596354
3.899086702	1.395967153	-0.846125807
3.646170367	1.007650362	-0.844664921
3.463247768	1.096384849	-0.846614036
3.119158303	1.249569774	-0.854117223
3.108574743	0.855053103	-0.84923678
2.960895826	0.93479391	-0.849244762
10.37683429	2.867379708	-0.780950675
7.171231944	1.976338406	-0.81413151
6.577101285	2.074106986	-0.820269411
5.05801699	1.591857157	-0.828942448
4.729607268	1.680493295	-0.833367873
4.40765504	1.751418642	-0.836041261
3.895963725	1.38137902	-0.84452441
3.640771138	0.994145618	-0.84270363
3.464736309	1.085172387	-0.846160086
3.113068615	1.236060283	-0.851407296
2.965591289	0.926280766	-0.849772442
10.39039318	2.836844099	-0.781312415
6.581537864	2.053327572	-0.820033198
5.0543869	1.573688574	-0.827552407
4.741254787	1.668267124	-0.834514428
4.433166962	1.745826685	-0.839860429
3.467119041	1.074249417	-0.845933112
2.844834093	0.997697881	-0.856431137
10.39519584	2.803914426	-0.781023035
7.19186273	1.934623299	-0.815110694
6.587806358	2.033126027	-0.820033198
5.085629243	1.566317308	-0.831877022
4.747282188	1.654037978	-0.834678222
4.425658253	1.727205177	-0.83743005
3.895111852	1.354230334	-0.842522705
3.658119121	0.97480321	-0.845318664
3.480641048	1.066746609	-0.848429831
2.978598633	0.91032214	-0.851882984
2.840611991	0.986440955	-0.854244959
7.154531725	1.901062339	-0.810214828
6.585465466	2.010296093	-0.81897021
5.089465748	1.550419537	-0.831722586
4.748604044	1.638178867	-0.834023047
4.421750961	1.710067019	-0.835694122
3.467121027	1.050977758	-0.84434429
2.834528169	0.974593676	-0.851512262
2.701434378	1.044481168	-0.855401304
10.40931039	2.739316452	-0.780805954
7.169945512	1.881626966	-0.811302792
6.597305623	1.99180483	-0.819678849
5.075278666	1.529097673	-0.828633576
4.755474739	1.624240317	-0.834350635
4.432494354	1.698607663	-0.836735656
2.996142332	0.895619962	-0.855312694
2.858449179	0.973022438	-0.857797512
10.40897777	2.705110419	-0.780154774
7.203590141	1.866853032	-0.814457904
6.591015865	1.967862057	-0.818143434
6.079832357	2.05931781	-0.825611238
4.759500989	1.609327083	-0.834186842
4.446891619	1.688496822	-0.838471641
3.471637009	1.029130463	-0.843890342
2.986850805	0.882869306	-0.851882984
2.697032807	1.023801514	-0.852002349
10.41433042	2.672419654	-0.779937754
7.18617116	1.838829699	-0.811846745
6.59416501	1.94678822	-0.817789084
6.079538773	2.038448356	-0.824718299
4.757867547	1.592525781	-0.833040287
4.464955156	1.679700635	-0.840902018
4.142046734	1.217431009	-0.83887654
3.899356125	1.302294558	-0.839920485
2.988619629	0.873431032	-0.851619174
21.96155997	8.212551091	-0.654111487
10.42344668	2.640701504	-0.780010113
9.266183224	2.710559645	-0.792895845
7.192742263	1.817017634	-0.811955582
6.586761665	1.922653124	-0.816135591
4.467319174	1.664962598	-0.840381195
3.906123801	1.291247944	-0.840521001
3.486305121	1.010249106	-0.845933113
3.132376275	0.779441367	-0.850255663
2.986651835	0.8629193	-0.850300063
2.712250993	1.010581998	-0.854834821
21.9950871	8.148261098	-0.654362482
10.44214301	2.611371945	-0.780805955
9.269668602	2.680734237	-0.792486541
7.194425237	1.793979968	-0.81152035
6.61075653	1.90766714	-0.818379647
6.099470554	2.00358296	-0.82573885
4.754425815	1.558998767	-0.830747235
4.478873149	1.653636931	-0.841596355
4.14660829	1.191179925	-0.838304335
3.909135789	1.278953406	-0.840320791
3.48096182	0.99713485	-0.843890342
3.318091335	1.085196535	-0.849862778
2.992995189	0.854811864	-0.851355364
21.86983641	8.025642975	-0.649900598
10.44526338	2.578128606	-0.780444214
7.173832697	1.765485474	-0.808582853
6.619442932	1.888193792	-0.818733996
6.095213194	1.98148769	-0.824335579
4.7863981	1.553235533	-0.835497131
4.466351968	1.633461172	-0.83829807
4.153076501	1.17925707	-0.838876542
3.484004545	0.986450701	-0.843890341
3.333422544	1.078901191	-0.852937666
2.991890465	0.844577271	-0.850300064
10.43180455	2.540878264	-0.778852472
7.205297353	1.749802027	-0.81152035
6.631894835	1.869762955	-0.819560714
6.095598222	1.960955927	-0.823570194
5.093053304	1.432743787	-0.82708904
4.775173126	1.533416283	-0.832712698
4.468564927	1.618744725	-0.837777247
3.917842583	1.255242281	-0.840521001
3.708254089	1.343540647	-0.846702723
3.676195679	0.883594439	-0.844229091
3.517964329	0.984417825	-0.851380499
3.308957039	1.059778628	-0.845841672
3.143179234	0.751478151	-0.851274543
3.002829335	0.837727102	-0.852674474
10.45991583	2.513756042	-0.780371854
7.216431992	1.729078024	-0.81217314
6.612729016	1.842478226	-0.816489881
6.105366354	1.943449052	-0.82408047
5.116463239	1.422404426	-0.830178052
4.799598776	1.525032375	-0.836152304
4.484633698	1.609018614	-0.839860429
4.15739619	1.152965115	-0.838304336
3.915137902	1.241144078	-0.839119759
3.698554711	1.327204046	-0.843554348
3.677939607	0.872086705	-0.844011177
3.518152015	0.972841544	-0.850699576
3.315897812	1.050795955	-0.846787836
3.153914561	1.130644897	-0.851653643
3.137940406	0.740055702	-0.84923678
2.995156419	0.825690799	-0.849772441
2.734378223	0.98078427	-0.857950535
10.4636974	2.480733524	-0.780082473
7.21880039	1.706244224	-0.811846745
6.633668936	1.826399431	-0.818379647
6.115083846	1.925900755	-0.824590745
5.156053127	1.416384029	-0.835892766
4.792020921	1.506454229	-0.834023047
4.489548653	1.595252485	-0.839860428
4.170381049	1.142799214	-0.840211743
3.923601591	1.230592767	-0.84012064
3.702609094	1.315850853	-0.843554348
3.520180664	0.961786694	-0.850472602
3.317251837	1.040036641	-0.846314755
3.149148435	1.118045174	-0.849436467
3.161859116	0.73546408	-0.855095378
3.016288877	0.821567736	-0.855048883
21.94688225	7.749672386	-0.649314982
10.47222963	2.448846682	-0.780154774
8.343055697	2.602192063	-0.800120155
7.241427151	1.688151701	-0.813805115
6.635407976	1.804996404	-0.81790722
4.796619955	1.491745436	-0.834023046
4.48048691	1.576567896	-0.837256479
4.417243808	1.024159103	-0.836885183
4.173867693	1.129999275	-0.840211744
3.925486725	1.217968818	-0.839720274
3.520293994	0.950221033	-0.849791678
3.15279013	0.723165885	-0.852038733
9.32225317	2.510952033	-0.792895845
6.641873348	1.784888478	-0.818025297
4.804002663	1.477892743	-0.834514427
4.499252312	1.567675022	-0.839860427
4.173521429	1.116174255	-0.839448803
3.681051794	0.837116806	-0.842921544
3.148627027	1.096152175	-0.84746564
10.48316799	2.383659656	-0.779865393
9.32894952	2.482083664	-0.792813949
6.637720433	1.761955418	-0.816844231
4.822671053	1.467454972	-0.836971272
4.504041021	1.553864152	-0.839860429
4.187366223	1.106122687	-0.841546947
3.93382381	1.194144195	-0.839920486
3.153807781	1.087118886	-0.847958333
2.870320744	0.87016035	-0.852058779
10.48653923	2.350613859	-0.779576013
6.646937003	1.742590174	-0.817316657
4.513446829	1.541630276	-0.840728392
4.183141183	1.091288441	-0.840021008
2.878505192	0.863007719	-0.85369844
2.73639476	0.934386857	-0.853985098
10.49467546	2.31864578	-0.779648373
6.646484194	1.720696261	-0.816608018
5.179085994	1.337621753	-0.836201697
4.824965733	1.435866346	-0.835824718
4.176963405	1.076000832	-0.8381136
3.942955356	1.170541953	-0.840320792
3.716800368	1.257021452	-0.842295019
3.52697307	0.905738872	-0.848656805
3.159500644	1.067436809	-0.847711987
3.011716137	0.770898242	-0.850300062
2.739248511	0.92598731	-0.853985098
10.50173922	2.286437679	-0.779648372
6.664238862	1.703493943	-0.818143434
6.150449071	1.813296182	-0.8247183
5.170719396	1.31855248	-0.834193795
4.507878849	1.508905646	-0.837950874
4.420898622	0.95379296	-0.834707229
4.181196324	1.063422961	-0.838304336
3.341427397	0.980442025	-0.847733942
3.15783754	0.673509211	-0.850510411
2.737529007	0.916057369	-0.852568832
10.51260571	2.255044795	-0.779937754
6.661731217	1.681096593	-0.81719858
6.125512738	1.785536535	-0.820636157
5.168991723	1.301235571	-0.833267121
4.504073069	1.492281073	-0.836388458
3.955709015	1.147964701	-0.841521825
3.349085339	0.971539561	-0.848916617
3.166513464	0.665209578	-0.852293425
3.018261375	0.752871087	-0.850827683
2.753072291	0.911876073	-0.85653427
10.50288469	2.219276508	-0.778707811
6.680346911	1.664010953	-0.818852073
6.121431269	1.76398892	-0.819360498
5.167206752	1.28394177	-0.832340389
4.511437563	1.479376275	-0.836909283
4.425705326	0.926447381	-0.834525733
4.194312494	1.039400485	-0.839639539
3.340842556	0.958046077	-0.846078243
3.177062072	0.657254858	-0.854585937
3.027113183	0.7452217	-0.852674472
2.767704196	0.90730926	-0.860216466
10.53112606	2.191514131	-0.780299494
6.122044654	1.743841804	-0.818722668
5.695252209	1.84889589	-0.829284673
5.183595876	1.271142019	-0.83434829
4.525322219	1.468568321	-0.838645209
4.432379124	0.913659312	-0.835251716
4.2032029	1.027926788	-0.84078395
3.957022942	1.122067583	-0.840320792
3.51795237	0.857545716	-0.843890342
3.176971358	1.030079045	-0.848943775
3.18569656	0.648855647	-0.856368953
3.037821209	0.737980456	-0.855048885
2.754966695	0.893782564	-0.855401305
10.53780052	2.159194673	-0.780299494
6.1292755	1.725588954	-0.818977777
5.68675126	1.826869926	-0.82722694
5.195153609	1.257091859	-0.835583895
4.538245464	1.457387913	-0.840207625
4.205382216	1.014796409	-0.840593213
3.959503183	1.109657938	-0.840120638
3.743091888	1.202252762	-0.843974142
3.697617065	0.745948168	-0.8422678
3.5404516	0.851531374	-0.848656806
3.179193838	1.020031343	-0.848697372
3.187672165	0.639079063	-0.856368952
2.748564311	0.88239472	-0.852568832
10.53362067	2.124685858	-0.779503653
8.433340782	2.349054148	-0.801487724
6.135496323	1.707042275	-0.819105389
5.689497369	1.808514488	-0.826815371
4.552080792	1.446440264	-0.841943551
4.197971299	0.999388981	-0.83849507
3.960056424	1.09672069	-0.839520123
3.749558191	1.19165188	-0.844603806
3.358882733	0.929849524	-0.848443536
3.19431702	1.014085219	-0.851900047
3.167797092	0.624991249	-0.85051041
2.75674275	0.875700203	-0.854268338
10.52835025	2.090028787	-0.778635452
6.145485987	1.689525457	-0.819743218
5.687459749	1.788673413	-0.825717871
4.200062232	0.986280593	-0.838304336
3.960567131	1.083790484	-0.838919604
3.74013855	1.176036876	-0.841665355
3.554144228	0.8317889	-0.850699576
3.191865288	1.002537863	-0.850421911
2.759416441	0.867238521	-0.854268339
10.54156437	2.059056749	-0.779141912
8.439908696	2.295173333	-0.800758343
6.170741033	1.676123166	-0.822422091
5.703324408	1.774453114	-0.82722694
4.866367287	1.319087991	-0.837135064
4.204024672	0.973611803	-0.838495071
3.96576505	1.072145844	-0.839319967
3.554781626	0.820442982	-0.850245628
3.357021013	0.907194439	-0.846551324
3.214362265	0.998779933	-0.855595358
2.76114824	0.858483929	-0.853985096
10.55175005	2.027458894	-0.779431293
4.836086376	1.29496601	-0.831238616
4.462295723	0.848686158	-0.838337209
4.209862909	0.961365146	-0.839067277
3.752891058	1.154791047	-0.842924683
3.712246487	0.70160401	-0.843575289
3.562030042	0.810613714	-0.8513805
3.364482207	0.898144003	-0.847733942
3.204441585	0.984927289	-0.852146394
2.761019043	0.849163019	-0.853135315
10.56674077	1.996743694	-0.780082473
4.833360371	1.278357313	-0.830092061
4.459078553	0.833907424	-0.837248174
4.209919416	0.947798138	-0.838495071
3.756416254	1.143271875	-0.842924683
3.739329408	0.6948476	-0.849241304
3.220429968	0.979038224	-0.855595357
2.767281474	0.841804755	-0.854268339
10.55908884	1.961765354	-0.779069552
6.191663232	1.620765068	-0.823187474
4.842986747	1.265018648	-0.831074823
4.46258329	0.82040103	-0.837429671
4.209932452	0.93423984	-0.837922866
3.982102105	1.037329462	-0.840721156
3.771140815	1.135123629	-0.845443395
3.745284073	0.684073616	-0.850112964
3.383093571	0.880910665	-0.851045397
2.765258965	0.831929417	-0.852852073
10.560152	1.928465497	-0.778707812
4.849710533	1.250893788	-0.831566145
4.450563575	0.804083574	-0.834707229
3.976725785	1.022910928	-0.838919605
3.78303953	1.126059058	-0.847332388
3.749286256	0.672924902	-0.850548793
3.552211475	0.774062904	-0.847294958
3.209654817	0.954287865	-0.85116095
2.765040671	0.822621372	-0.852002349
10.55521985	1.89412043	-0.777911911
4.85352553	1.2360092	-0.831566146
4.01118292	1.018664034	-0.84552529
3.780848792	1.112791206	-0.846073061
3.745566224	0.66040225	-0.849241304
3.552665323	0.762752347	-0.846841011
2.768471481	0.814405134	-0.852285591
10.55017656	1.85982389	-0.77711607
4.858251206	1.221353478	-0.831729938
3.997182821	1.002064654	-0.841922189
3.765469109	1.095722873	-0.841875223
3.721610103	0.644412037	-0.843357374
3.555941485	0.752050877	-0.847067985
3.182181057	0.547061407	-0.85051041
2.790295676	0.811532237	-0.858233775
10.53814326	1.824385213	-0.775813768
4.863890422	1.206918037	-0.832057526
4.578922164	1.316947892	-0.839860429
4.014504159	0.993326744	-0.844924771
3.769752654	1.084435743	-0.842085092
3.74377503	0.636426071	-0.847933758
3.206729249	0.541157991	-0.856623701
2.919251455	0.721188036	-0.854244957
10.55254052	1.793550162	-0.776464948
4.864695861	1.191286192	-0.831566146
4.55736421	1.295622572	-0.835173298
3.999448641	0.976589872	-0.841121518
3.780585454	1.075004487	-0.843764273
3.734157973	0.623010051	-0.845318665
3.219259163	0.914299031	-0.850668257
2.926123264	0.713367721	-0.855611334
18.89683252	3.162330251	-0.689157416
10.55799276	1.761166936	-0.776464948
4.865450678	1.175660754	-0.831074821
4.567006096	1.283233084	-0.836214888
4.461403594	0.735560895	-0.834525733
4.009093679	0.965921673	-0.842522706
3.777277067	1.061549104	-0.84229502
3.557939319	0.718327332	-0.845933112
3.377008873	0.813257585	-0.845605161
3.176581958	0.51604456	-0.847708459
3.061993959	0.615696321	-0.854257396
2.793953411	0.7847793	-0.857100753
18.90250224	3.103692867	-0.68901365
10.56925235	1.729733801	-0.776899049
4.862317764	1.159126915	-0.829928268
4.568074834	1.268425218	-0.835694122
4.020616893	0.95565643	-0.844324255
3.565857631	0.708547153	-0.847294958
3.392722494	0.806037429	-0.848916617
3.237883439	0.898155634	-0.854117222
2.800968436	0.77748642	-0.858517017
18.91292075	3.045845112	-0.689049592
10.58435665	1.698880252	-0.77762253
4.570995038	1.254143916	-0.835520494
4.465832918	0.7081724	-0.834525733
4.013036972	0.940856843	-0.84212234
3.782776662	1.038093422	-0.842085094
3.742626037	0.589070586	-0.845972466
3.554633472	0.694987711	-0.844117316
3.403693161	0.79762007	-0.851045396
3.188287289	0.497886497	-0.85000097
18.91230664	2.986248069	-0.688690116
10.594446	1.667175059	-0.777984271
4.5634152	1.237022578	-0.833437314
4.469927899	0.694770156	-0.834888724
4.23026477	0.816910769	-0.837159924
3.789718305	1.02750649	-0.842924684
3.736699418	0.576395324	-0.844229092
3.557705287	0.684262913	-0.844344291
3.390977561	0.783673445	-0.847260917
3.245204559	0.878778121	-0.854609973
3.194579354	0.488833951	-0.851274545
2.796429594	0.757776995	-0.855684545
18.91644131	2.9274478	-0.688510408
10.58373902	1.632231641	-0.776826689
4.588117625	1.228620694	-0.837256481
4.472038224	0.681053294	-0.834888723
4.256861218	0.80850787	-0.841928416
3.78718605	1.014357271	-0.841665355
3.75775027	0.56784509	-0.848587502
3.391471209	0.772834616	-0.846787836
3.246012752	0.868316949	-0.854117222
3.182675235	0.477024148	-0.847708457
3.061735692	0.576646322	-0.852146796
2.926403975	0.666051161	-0.852605352
19.01524672	2.883031541	-0.691781511
10.61335096	1.603478381	-0.778635451
4.586152846	1.213027866	-0.83621489
3.388138386	0.761148334	-0.84536865
3.1975185	0.469223201	-0.851274543
3.06823265	0.568128441	-0.853465964
10.55902284	1.562151495	-0.774294445
9.481910307	1.758149251	-0.791995457
4.584135528	1.197458639	-0.835173298
3.820771998	0.998268037	-0.847752183
3.232523805	0.843489355	-0.849190121
3.188413969	0.457899014	-0.848472648
3.070910051	0.558885298	-0.853729773
2.795862204	0.73006882	-0.853418558
10.55981657	1.529177689	-0.774005005
9.477454784	1.727263916	-0.791176966
4.593509287	1.184864873	-0.836214888
4.480064012	0.640143137	-0.835251716
3.590756819	0.645029818	-0.850245627
3.227588172	0.831633588	-0.847219235
3.197464695	0.449191186	-0.850510412
3.073559703	0.549631018	-0.853993583
2.923951327	0.637245521	-0.850145887
15.80278703	2.83767579	-0.727112379
10.57532118	1.498312422	-0.774800846
9.476822972	1.697125319	-0.790685824
4.586625198	1.16809305	-0.834305336
4.513172816	0.630751106	-0.841059653
3.736400567	0.517803737	-0.8422678
3.256423947	0.828417979	-0.854117223
3.067631442	0.538863852	-0.851882985
15.79371046	2.786056352	-0.726298061
10.60259075	1.46900911	-0.776464948
9.486893724	1.668906244	-0.791095071
4.589231994	1.153775848	-0.834131707
4.502420176	0.61517129	-0.838700202
3.803248243	0.956383909	-0.841875225
3.745708731	0.507386244	-0.844011177
3.405778421	0.7213252	-0.847497429
3.076874382	0.530761668	-0.853993584
2.798742695	0.703370447	-0.852285592
15.80021546	2.737247875	-0.726207581
10.61001289	1.436875371	-0.776681969
9.497861363	1.640810911	-0.791586212
8.564159272	1.800605079	-0.801214199
4.593706003	1.139928074	-0.834305335
4.482842178	0.598492195	-0.834707229
4.248766814	0.726212098	-0.837541394
3.807113383	0.944946771	-0.842085093
3.741442469	0.495123991	-0.842703629
3.574459113	0.608196739	-0.845025214
3.410828897	0.711468218	-0.848207023
3.252038646	0.806089597	-0.851653645
3.070879901	0.520031031	-0.851882983
2.80181819	0.695011612	-0.852568833
18.93135448	2.514769305	-0.68692874
15.80459897	2.688090593	-0.726026621
10.62920286	1.406279857	-0.77776725
9.464528402	1.605164862	-0.788393966
8.555015301	1.771293572	-0.799846629
4.895585568	1.009430818	-0.829928268
4.249039	0.712848836	-0.837159926
4.047079859	0.831677851	-0.844124102
3.819490929	0.93558844	-0.84418401
3.742943963	0.483643041	-0.84270363
3.579189939	0.597708862	-0.845706137
3.196981117	0.409182955	-0.84898209
2.944743589	0.604022152	-0.853971671
2.818842008	0.69006118	-0.857100754
18.96672935	2.460276481	-0.687935283
10.63445628	1.373791008	-0.77783961
9.462526936	1.574975139	-0.787821046
4.912194363	0.997154164	-0.832221319
4.599656855	1.111488828	-0.834131708
3.835648512	0.927081833	-0.84712252
3.578123781	0.586252819	-0.845025215
3.417987262	0.691104085	-0.848916617
3.203978673	0.400091765	-0.850510411
3.074013091	0.501178676	-0.851882985
2.824674585	0.682310601	-0.858233775
15.82178157	2.591226085	-0.726071861
10.66138048	1.344027702	-0.779503652
9.46829835	1.546097667	-0.787902884
4.917164929	0.982465704	-0.832548905
4.614540457	1.100112656	-0.836214888
4.033849542	0.803194555	-0.84032079
3.847034059	0.917350968	-0.84901151
3.743903753	0.460429417	-0.8422678
3.422950217	0.681183498	-0.84962621
3.199431449	0.389558937	-0.848982088
3.084108504	0.493116015	-0.854257395
2.834218028	0.675419963	-0.860499707
15.78921723	2.536177701	-0.724216965
10.66050456	1.310704149	-0.779141912
9.474964746	1.51735727	-0.788066558
4.629398229	1.088655513	-0.838298072
4.036294654	0.790815095	-0.84032079
3.850782255	0.905767975	-0.849221438
3.757896046	0.450451138	-0.84510075
3.416442291	0.668998381	-0.847497429
3.215015737	0.381450395	-0.852802866
3.071312786	0.481411251	-0.850300064
2.833475984	0.666063194	-0.859649982
15.84330418	2.495029342	-0.726343301
10.67437862	1.2791788	-0.779865394
9.478591264	1.48812679	-0.787984721
4.910509547	0.949840497	-0.830419647
4.642309952	1.076672612	-0.840033999
4.492471492	0.529773697	-0.834888724
4.034853947	0.777686494	-0.839520122
3.845923454	0.892182102	-0.847542314
3.752474566	0.438127671	-0.843575288
3.588180228	0.554038919	-0.846160086
3.094703202	0.475354534	-0.856367994
2.94154338	0.56584136	-0.85096569
2.831769183	0.656500686	-0.858517018
18.97663384	2.225129142	-0.687252273
15.86668135	2.448848905	-0.72706714
10.69014044	1.24781181	-0.780733595
9.490992022	1.460252294	-0.788639537
8.595851563	1.642661921	-0.801214199
4.91727712	0.935508328	-0.831074822
4.635990758	1.060229572	-0.838298071
4.262384776	0.648030719	-0.837732129
4.052622554	0.768223717	-0.842722858
3.839111442	0.878198561	-0.845443396
3.758649705	0.427164242	-0.84466492
3.581196707	0.541716968	-0.844117316
3.264435452	0.745661996	-0.851160952
3.202881553	0.360095662	-0.84898209
3.10091619	0.466575463	-0.857687105
2.831900003	0.647382358	-0.857950534
18.98734224	2.167352491	-0.68739604
15.86029097	2.398068157	-0.726433781
9.49444203	1.430978973	-0.7885577
8.597914861	1.615730647	-0.800940674
4.921093961	0.920599328	-0.831238616
4.63057557	1.044052085	-0.836735656
4.497592003	0.502416772	-0.835251715
4.264353178	0.634950878	-0.837732131
4.042439371	0.753453051	-0.840120639
3.840834014	0.86620106	-0.845233471
3.591512291	0.532011807	-0.846160086
3.2761626	0.737772515	-0.853624528
3.212622695	0.351213475	-0.851274544
3.08897328	0.455091528	-0.853993585
19.01575415	2.111516252	-0.688186874
15.86263193	2.348666631	-0.726207581
9.529352284	1.406354545	-0.79109507
8.596955441	1.58825961	-0.800393681
4.931657033	0.90692464	-0.832548907
4.623181912	1.027490569	-0.834826102
4.282794337	0.624272055	-0.840974684
3.848245409	0.855474332	-0.846282929
3.760229715	0.403989283	-0.844447006
2.832074049	0.629162039	-0.856817511
19.02313703	2.053274048	-0.688222816
15.86580778	2.299416707	-0.726026621
9.549404731	1.379392035	-0.792404703
8.596888135	1.560987433	-0.799937765
4.942182375	0.893193874	-0.833859255
4.645552356	1.017516147	-0.83829807
4.291492223	0.612099978	-0.842309888
4.07880688	0.734363968	-0.846726324
3.855627158	0.844710293	-0.847332387
3.756597799	0.391944782	-0.843357373
3.27873424	0.717242232	-0.853131778
3.217602948	0.331792145	-0.852038734
2.948265557	0.529701482	-0.850965689
15.88069997	2.251852131	-0.72638854
4.950726875	0.879062038	-0.834842014
4.642876379	1.002012499	-0.83725648
4.05692095	0.71758072	-0.841722036
3.863934842	0.834115292	-0.848591773
3.429134357	0.606168668	-0.847733941
3.21090801	0.321149222	-0.85000097
3.094941932	0.426905701	-0.854521205
2.828381465	0.610154984	-0.85455158
19.04432523	1.937421898	-0.68854635
15.88852492	2.203257545	-0.726433781
4.952428703	0.86369979	-0.834678221
4.657488062	0.990221321	-0.839339603
4.279604775	0.583634031	-0.839258068
4.062964734	0.705801587	-0.842522707
3.837785476	0.816155652	-0.842295019
3.5881198	0.486589653	-0.843890342
3.266956761	0.69368866	-0.848943776
3.208028173	0.310923638	-0.848982088
2.830240037	0.601474786	-0.85455158
19.05913001	1.879868449	-0.688869824
15.89817851	2.154904431	-0.7265695
4.966723264	0.850499939	-0.836643684
4.661468113	0.976129458	-0.839513231
4.509664267	0.43383903	-0.836159198
4.294024534	0.572187201	-0.84173768
4.068008048	0.69382748	-0.843123221
3.839314519	0.804177209	-0.842085093
3.448114245	0.587728615	-0.851518479
3.238813444	0.30388039	-0.856878394
2.828317184	0.592002964	-0.853418557
15.90273515	2.105856997	-0.726479021
4.96541804	0.834604168	-0.835988512
4.652866745	0.95943703	-0.83743005
4.514890673	0.42036622	-0.836885183
4.304520819	0.560150708	-0.843454354
3.594901189	0.465063987	-0.844798239
3.439359686	0.575383657	-0.848916616
3.20698635	0.290971544	-0.848217898
3.113090417	0.400247576	-0.858478536
2.840452577	0.585452644	-0.856534271
15.9249724	2.059107861	-0.72720286
4.966981889	0.819206027	-0.835824718
4.646136896	0.943198471	-0.835694123
4.305245225	0.54681829	-0.843263619
4.07315587	0.669012363	-0.843323376
3.839385699	0.779631619	-0.841035634
3.451655502	0.566560307	-0.851518478
3.271303279	0.663205893	-0.848451026
2.83941548	0.576163344	-0.855684545
15.9302223	2.010116101	-0.727157619
4.958759552	0.802230676	-0.834023047
4.299109318	0.532641809	-0.841737683
4.071319656	0.655889645	-0.842522704
3.840800781	0.767657232	-0.840825766
3.434192073	0.552879401	-0.846787837
3.22316498	0.272510386	-0.852038733
3.085807345	0.377507459	-0.850300063
2.837407913	0.566698065	-0.854551579
15.93334118	1.960867268	-0.7270219
4.956325963	0.786240814	-0.83320408
4.671162997	0.918472576	-0.839166034
4.277333576	0.516624843	-0.837159925
3.625137246	0.435091189	-0.85092655
3.432992768	0.541886346	-0.846078242
3.228805154	0.263013133	-0.853312308
2.842897317	0.55873014	-0.855684545
19.11659626	1.589863013	-0.689984192
15.92440321	1.910190479	-0.726343301
4.959689229	0.771182906	-0.833367872
4.680726949	0.90544663	-0.840381193
4.51382793	0.364455032	-0.835796205
4.28767276	0.504532178	-0.838876541
4.069458534	0.629996778	-0.841321673
3.873276396	0.749462543	-0.846912593
3.597435833	0.420574749	-0.844117317
3.434639152	0.531351565	-0.846078242
2.854955766	0.552008331	-0.858800258
4.962032008	0.755963151	-0.833367873
4.686385538	0.891634291	-0.84090202
4.513944312	0.350528963	-0.835614709
4.301879041	0.492827878	-0.841356213
4.068466128	0.617068127	-0.840721156
3.43337127	0.520374909	-0.84536865
3.213965345	0.241962474	-0.84898209
15.93185342	1.811992748	-0.726162341
4.964328004	0.740736331	-0.833367874
4.688130661	0.877071369	-0.840728391
4.523824365	0.337336884	-0.837248174
4.294589926	0.478648951	-0.839639537
4.067432651	0.604151543	-0.840120639
3.87588001	0.725322801	-0.846492855
3.773666385	0.277027626	-0.844882836
3.603820657	0.398921967	-0.845025215
15.95819034	1.765412721	-0.72711238
4.964625045	0.725217299	-0.833040287
4.690799353	0.862684239	-0.84072839
4.300918272	0.465999813	-0.840593215
4.071206107	0.591951911	-0.840521003
3.768657201	0.265038053	-0.843575289
3.611805545	0.388592981	-0.846614034
3.440345564	0.499857129	-0.846314754
3.090275906	0.330026779	-0.850036253
2.851426186	0.524148162	-0.856251027
30.70050402	4.446454701	-0.566383687
15.93075287	1.712921019	-0.725619462
4.964873396	0.709703415	-0.8327127
4.69245518	0.84811384	-0.840554823
4.070092875	0.579044849	-0.839920485
3.857166323	0.697352451	-0.841455428
3.633322054	0.379635704	-0.8513805
3.4505206	0.490530753	-0.848443535
3.229564913	0.213263733	-0.852548175
2.841695637	0.513351713	-0.852852074
30.85061386	4.37160423	-0.568902878
15.90314514	1.660614362	-0.724126485
5.622404172	0.371197423	-0.826927674
4.969958256	0.694877862	-0.83320408
4.695035055	0.833713619	-0.840554822
4.086406548	0.568580583	-0.842923069
3.630593953	0.368094085	-0.850472602
3.438536225	0.478069188	-0.845132081
2.846090099	0.505133881	-0.853701798
15.8803358	1.608996762	-0.722859766
4.967179543	0.678958994	-0.832385112
4.677197179	0.815752145	-0.836909284
4.085219284	0.55564488	-0.842322553
3.875820168	0.676192795	-0.844603804
3.233708498	0.193616862	-0.853312308
2.850460862	0.496893934	-0.85455158
15.86829675	1.558608949	-0.722090629
4.967283736	0.663455523	-0.832057526
4.686472679	0.802562499	-0.838124444
4.301427022	0.412717045	-0.839639539
4.099530598	0.544786825	-0.844924773
3.873058446	0.66347337	-0.843554349
3.313990423	0.566630741	-0.854609972
3.238149115	0.183914413	-0.854331189
2.861424992	0.489764476	-0.857383996
15.85510325	1.508215552	-0.72127631
4.966361249	0.647830166	-0.831566145
4.68405655	0.787364589	-0.837256479
4.289966223	0.398338645	-0.837159925
4.107012115	0.532963593	-0.846125805
3.895323454	0.654992486	-0.847962051
3.62509983	0.333859556	-0.848429831
3.444717673	0.446651377	-0.845605161
3.313801488	0.556140067	-0.854117221
3.232904388	0.173667808	-0.852802867
2.862914034	0.480983423	-0.857383995
15.86562523	1.460114922	-0.72154775
4.294101286	0.385438628	-0.83773213
3.887667814	0.641447044	-0.845863134
3.771922554	0.195573969	-0.843357375
3.633867548	0.323427052	-0.850245627
3.45378323	0.43705687	-0.84749743
2.863429995	0.472041898	-0.857100754
31.08664433	3.919629106	-0.572079269
15.85808792	1.410371117	-0.72100487
4.981990302	0.618804076	-0.833531667
4.700465777	0.760496387	-0.839339603
4.095619705	0.50595161	-0.843123222
3.779328393	0.184333767	-0.844882835
3.465715223	0.427768008	-0.850099292
3.298016051	0.532705651	-0.849190122
3.094727966	0.263426239	-0.849508573
2.873385331	0.464632612	-0.859649983
13.5619681	1.661491172	-0.751222844
4.977989208	0.602805107	-0.832548905
4.704722331	0.746380624	-0.839686801
4.088397773	0.492329793	-0.84132167
3.873183165	0.614669038	-0.841875223
3.480516516	0.418758206	-0.853410746
3.230501692	0.143733672	-0.851783986
3.107057768	0.254876811	-0.852674473
2.871955608	0.455364444	-0.858800258
13.5481638	1.617626644	-0.750179763
4.98275424	0.587876747	-0.833040286
4.706989939	0.731943214	-0.839686801
4.088916281	0.479670283	-0.84112152
3.906932522	0.6077427	-0.848801643
3.609507345	0.287800723	-0.843890341
3.469239753	0.406607819	-0.850335804
3.095324625	0.244356456	-0.849244764
2.861967042	0.444783905	-0.855401303
13.54314424	1.574900494	-0.749630804
4.982574423	0.572361979	-0.832712699
4.69460953	0.715273883	-0.837082852
4.093289008	0.467456924	-0.841722037
3.8817147	0.591628634	-0.842924683
3.471436195	0.39607258	-0.850572373
3.327691444	0.506117949	-0.855595358
3.220693275	0.123501376	-0.848982088
2.855733237	0.434846468	-0.853135315
13.53203783	1.531546632	-0.748752469
4.986267908	0.557292083	-0.833040287
4.706522488	0.702321171	-0.838818838
4.101520244	0.455653951	-0.843123223
3.883511544	0.579716906	-0.842924683
3.461046691	0.384134343	-0.847733942
3.232654101	0.114028926	-0.852038734
2.853259679	0.425517294	-0.852002349
13.53171029	1.489477527	-0.748477931
4.988934716	0.542098362	-0.83320408
4.714501484	0.688732563	-0.839860427
4.095105849	0.442226963	-0.841521824
3.452548733	0.372472019	-0.845368649
3.221390507	0.103737252	-0.848982088
3.102253561	0.216192795	-0.850563873
2.8526538	0.416484524	-0.851435867
13.53720919	1.448061963	-0.748532827
4.992536556	0.526997118	-0.833531667
4.721467146	0.674962303	-0.840728392
4.107162162	0.430785526	-0.84372374
3.628314604	0.244532659	-0.847521934
3.241992443	0.094445013	-0.85433119
3.118301376	0.207699879	-0.854785074
2.999335559	0.313478216	-0.856704422
13.5405952	1.406420527	-0.748477931
5.674783188	0.165239104	-0.833171379
5.005905884	0.512884325	-0.83549713
4.72351561	0.660473884	-0.840728392
4.115287375	0.418877379	-0.845124926
3.900302387	0.545574845	-0.845443397
3.632935268	0.233650014	-0.848429831
3.322133258	0.463636399	-0.852639087
13.53391848	1.363770728	-0.747874076
5.007455803	0.497523972	-0.83549713
4.6942959	0.641710932	-0.835173298
4.314862808	0.267468321	-0.840021008
4.110702917	0.405672553	-0.843923892
3.898083051	0.533076442	-0.844603808
3.630718745	0.222324655	-0.847748908
3.225109247	0.074150652	-0.849746223
3.100260702	0.187398462	-0.849508573
2.863967955	0.391250253	-0.853701799
13.5877271	1.327095839	-0.750618989
7.446467743	0.174876196	-0.815219473
5.008958947	0.482158988	-0.835497131
4.706004024	0.628609894	-0.836909283
4.312723162	0.254056067	-0.839448802
4.111928188	0.393059201	-0.843923892
3.88613236	0.519301733	-0.841665355
3.621661219	0.210619296	-0.845479164
3.224354643	0.064236545	-0.84949153
13.61459774	1.28756519	-0.751881654
7.442000231	0.151928474	-0.814675521
4.999609712	0.465782854	-0.83369546
4.112139173	0.380351895	-0.843723739
3.898372032	0.508768628	-0.843974143
3.643683644	0.20068551	-0.850472601
3.460758379	0.319736985	-0.846078242
3.305116104	0.430288043	-0.847219236
2.880579802	0.375529557	-0.857950536
13.60257416	1.244334775	-0.75100326
7.439449576	0.129044303	-0.814349126
4.998067686	0.450176584	-0.833204079
4.733218601	0.602708118	-0.841075588
4.33282632	0.228571473	-0.843072827
4.112310528	0.367646981	-0.843523584
3.897974504	0.496559081	-0.843554346
3.654008003	0.190011646	-0.852742346
3.222754162	0.044424412	-0.848982088
3.105707532	0.159053826	-0.850563874
13.55261865	1.197849718	-0.748038764
7.43384666	0.106134646	-0.813696336
4.993528696	0.43432773	-0.832221319
4.727227328	0.587212766	-0.839686802
4.109514948	0.354691853	-0.842722859
3.785504046	0.045125547	-0.845318665
3.468463445	0.298996857	-0.84749743
3.238346769	0.034702726	-0.853057616
3.105217493	0.149478522	-0.850300065
15.93464075	0.778549889	-0.722497847
13.52737805	1.153804402	-0.746446724
7.422209342	0.083193731	-0.812390756
4.985007119	0.418181091	-0.830583441
4.7221625	0.571878276	-0.838471639
4.307671725	0.200747614	-0.837922866
4.109607043	0.342001127	-0.842522704
3.90288939	0.472867387	-0.843974143
3.785624789	0.033511574	-0.845318666
3.649267831	0.167319862	-0.851380499
3.4771106	0.288998175	-0.849389698
3.320482682	0.401245569	-0.850175509
3.226834218	0.02467871	-0.850000972
3.128787633	0.140993289	-0.856631805
2.886770209	0.34934716	-0.858800258
15.93994815	0.729796464	-0.722633567
13.52587867	1.111888522	-0.746172244
7.434358065	0.060519425	-0.813696336
5.00494934	0.404394855	-0.833695461
4.708246569	0.555541764	-0.835694123
4.112590625	0.329547925	-0.84292307
3.911118619	0.461693625	-0.845443397
3.782781937	0.021880347	-0.844664921
3.639060841	0.155665435	-0.848883779
3.469264132	0.27763162	-0.847260917
2.877351583	0.339253758	-0.855684546
23.20034789	2.691193974	-0.651573819
15.93412758	0.68054898	-0.722271589
13.53917982	1.07117403	-0.746721203
7.429538511	0.03768564	-0.813152325
5.016985082	0.38987875	-0.83549713
4.702101604	0.540195267	-0.834305335
4.117489612	0.317230193	-0.843723739
3.896975541	0.447906033	-0.842085095
3.623951193	0.143882037	-0.845252188
3.31421622	0.379870627	-0.847958333
3.24433102	0.00490508	-0.854585938
2.880284385	0.330643329	-0.856251029
15.91118424	0.630671416	-0.72114059
13.54439426	1.029782779	-0.746830995
7.434589459	0.014901922	-0.813696336
5.011271472	0.373971106	-0.834350635
4.109649365	0.303946019	-0.841922187
3.63702781	0.133226696	-0.848202856
3.24239674	-0.005045401	-0.854076497
2.878425842	0.321485824	-0.855401304
15.92502553	0.582291654	-0.72168347
13.54251	0.987861094	-0.746556515
7.435593939	-0.007908203	-0.813805114
5.010427282	0.358454214	-0.834023048
4.702390491	0.51101438	-0.83378451
4.103721661	0.29085149	-0.840521002
3.633525934	0.121937167	-0.847294958
3.252036186	-0.015037626	-0.856623703
2.985175656	0.210474906	-0.850145887
15.89878149	0.53249532	-0.720416751
13.55145325	0.946726114	-0.746885891
7.43255243	-0.030707925	-0.813478719
5.008550698	0.34287862	-0.833531667
4.70491571	0.496688602	-0.833958139
4.310244161	0.134647738	-0.837922866
3.898988133	0.411814874	-0.841665356
3.630962656	0.110700055	-0.846614035
3.338776815	0.351584251	-0.853378183
3.251974554	-0.02501466	-0.856623701
2.876529304	0.303415671	-0.854268339
15.91032534	0.484019782	-0.720869151
13.58617478	0.907275361	-0.748642677
7.439381899	-0.053560629	-0.814240289
5.007610105	0.327382277	-0.833204079
4.716214209	0.483255666	-0.835694123
3.621549795	0.099292985	-0.84434429
3.338875507	0.341240811	-0.853131779
3.246080898	-0.03492903	-0.85509538
2.871722224	0.294003138	-0.852568833
15.9087385	0.435123389	-0.72073343
13.61878914	0.86749348	-0.750289614
11.859877	1.187686461	-0.769317683
7.44017649	-0.076394287	-0.814349126
5.002683588	0.311649575	-0.832221319
4.715714754	0.468589475	-0.835346927
3.898522518	0.387593205	-0.841035633
3.621837414	0.088181756	-0.84434429
3.332191121	0.330231041	-0.851160951
3.247892152	-0.044914444	-0.855604819
3.122414977	0.073568457	-0.854257393
2.87929113	0.285854661	-0.854551579
15.91099829	0.386338257	-0.720778671
13.61540656	0.825345026	-0.749960179
11.84657968	1.149656645	-0.768222687
10.76285492	-0.136208275	-0.780805954
5.005585744	0.296416713	-0.832548906
4.713208723	0.45374219	-0.834652531
3.90358657	0.376005849	-0.841875226
3.7735967	-0.059218635	-0.842703629
3.625985689	0.077152575	-0.845252189
3.324505787	0.319172886	-0.848943775
3.248706034	-0.054894964	-0.855859512
2.885882436	0.277570687	-0.856251028
13.59694016	0.782365172	-0.748807365
11.84607731	1.112933141	-0.767965076
10.74742813	-0.168992393	-0.779720674
5.007456462	0.28111369	-0.832712699
4.704773174	0.438366468	-0.832916548
3.915430237	0.365026382	-0.844184012
3.649575037	0.066453373	-0.850699576
3.318714141	0.308344311	-0.847219235
3.238854196	-0.064668553	-0.853312308
2.880036078	0.26809338	-0.854268339
13.66109199	0.744013224	-0.752211029
11.83552175	1.075320468	-0.767063317
10.75982237	-0.202207862	-0.780661235
5.008295263	0.265749709	-0.832712699
4.708057284	0.424107089	-0.833263743
4.532465426	-0.093724829	-0.836703686
4.307876386	0.068453785	-0.837159925
3.911662676	0.352573438	-0.843134552
3.655604561	0.05534478	-0.852061423
3.351499269	0.301022284	-0.855349011
2.878934644	0.259084391	-0.853701799
13.63538907	0.700663383	-0.750673885
11.84671804	1.039702532	-0.767578599
10.78507736	-0.235784384	-0.782542357
5.006131381	0.250235479	-0.832221319
4.723072018	0.41085581	-0.835694123
4.52429152	-0.107443014	-0.835251716
3.656730953	0.044141037	-0.852288398
2.888314963	0.250997995	-0.856251029
13.65043997	0.659453659	-0.751387532
11.84487996	1.002931488	-0.767256555
5.030525383	0.235985146	-0.836152305
4.71547795	0.395622678	-0.834131708
4.315086501	0.042086883	-0.838495071
3.660744537	0.032957207	-0.853196295
2.880470173	0.241414687	-0.853701799
5.037139041	0.220809814	-0.837135066
4.72844887	0.382105828	-0.836214889
4.323048352	0.028900683	-0.84002101
3.326112384	0.267906622	-0.848204679
3.132885766	0.016132207	-0.856895615
2.879285287	0.232422069	-0.853135315
13.67418117	0.576524912	-0.752485508
5.674236719	-0.183053744	-0.83317138
5.031878461	0.205113985	-0.836152304
4.739417507	0.368360477	-0.837950874
4.532939769	-0.149402879	-0.837066679
4.346675691	0.015722842	-0.844598765
4.113649071	0.164951553	-0.841121518
3.645295654	0.010450009	-0.849564705
3.341413056	0.258823713	-0.851900048
3.223951333	-0.113864548	-0.849746221
3.138708011	0.006532619	-0.858478537
2.877116366	0.223364755	-0.852285592
13.66690601	0.534219429	-0.751991445
10.70661179	-0.365563519	-0.77711607
5.675625866	-0.200531058	-0.833461773
5.023611861	0.189341041	-0.83467822
4.733650545	0.353305331	-0.836735655
4.531477176	-0.163273638	-0.836885182
4.106303186	0.152040257	-0.839520122
3.910760749	0.292093207	-0.841875225
3.637519273	-7.32081E-4	-0.847748908
3.350889811	0.249218117	-0.854117221
3.24291294	-0.124496896	-0.854840631
3.000190437	0.109984133	-0.852878581
15.92267861	-0.004255392	-0.72109535
13.66149574	0.492035834	-0.751607115
10.70942624	-0.398557602	-0.777405509
5.02022565	0.173791398	-0.834023047
4.729800901	0.338429582	-0.835867693
4.525059247	-0.176944697	-0.835796206
4.341782369	-0.010935792	-0.843645091
4.115563107	0.139740809	-0.841321672
3.909687942	0.279954135	-0.84145543
3.626786924	-0.011856806	-0.845252188
3.470594708	0.117477541	-0.84536865
3.109751997	-0.012608926	-0.850563873
13.62102694	0.448739798	-0.749301428
10.68224236	-0.43036787	-0.775524387
5.015805141	0.158233221	-0.833204079
4.731799145	0.323984453	-0.836041261
4.342709741	-0.024261625	-0.843835824
4.117930777	0.127174274	-0.841722034
3.783199251	-0.16392731	-0.845536638
3.630629046	-0.023008264	-0.846160086
3.497160124	0.107636405	-0.851755048
3.329149601	0.227069924	-0.848204679
3.225664942	-0.143661258	-0.850510411
3.107769643	-0.022135711	-0.850036252
2.883834438	0.19720216	-0.8537018
23.32340354	1.550825382	-0.652103645
13.59239847	0.406054518	-0.747654492
5.018239127	0.142900363	-0.833531666
4.729822908	0.309273198	-0.835520495
4.322001059	-0.037406347	-0.839830272
4.120260728	0.114594521	-0.842122343
3.779753729	-0.175397515	-0.844882836
3.626645976	-0.03411013	-0.845252188
2.901651827	0.189478626	-0.858800257
15.93894738	-0.15096449	-0.721864429
13.63550203	0.36547535	-0.749960179
5.014709273	0.127403721	-0.832876492
4.737629896	0.29518955	-0.836735656
4.116674989	0.101856258	-0.841321672
3.623602698	-0.04519992	-0.844571264
3.478328183	0.085697581	-0.847024348
2.907962816	0.180932935	-0.860499708
15.96937465	-0.200252083	-0.723266926
